ply
format ascii 1.0
element vertex 1306
property float x
property float y
property float z
property uchar red
property uchar green
property uchar blue
end_header
-0.401596 0.166912 3.874568 48 75 31
-0.361362 0.165937 3.875312 14 23 11
-0.353174 0.166572 3.872959 19 33 19
-0.342715 0.168853 3.874931 4 10 6
-0.333708 0.167338 3.874756 30 60 27
-0.321752 0.165864 3.875323 50 85 35
-0.315882 0.166124 3.874108 41 74 29
-0.307207 0.167050 3.876447 49 81 30
-0.293519 0.160688 3.879053 4 5 4
-0.404930 0.159365 3.875322 4 8 4
-0.379628 0.154896 3.872562 10 17 10
-0.372487 0.154149 3.874064 39 64 29
-0.359062 0.159422 3.874477 31 52 24
-0.349433 0.157910 3.874161 40 66 32
-0.329448 0.155964 3.876986 24 42 19
-0.321404 0.156943 3.876099 32 56 29
-0.315054 0.155258 3.875476 40 69 29
-0.300477 0.156108 3.876163 38 62 27
-0.293750 0.156844 3.875316 16 23 13
-0.370849 0.145246 3.875753 32 57 26
-0.363228 0.145946 3.875920 42 79 39
-0.352823 0.146141 3.875613 38 67 32
-0.343023 0.145872 3.877604 27 45 25
-0.330045 0.145919 3.875842 18 33 19
-0.322116 0.146408 3.875454 18 32 18
-0.312579 0.144257 3.874926 22 37 18
-0.303505 0.145932 3.875930 44 74 29
-0.392149 0.137951 3.875267 15 29 15
-0.383429 0.134671 3.873568 16 25 13
-0.371673 0.136788 3.875464 22 34 16
-0.362756 0.134213 3.875715 44 73 33
-0.354646 0.137148 3.875834 51 81 40
-0.344632 0.137706 3.875716 30 45 21
-0.332492 0.133940 3.873481 9 15 7
-0.309574 0.133063 3.875984 9 14 8
-0.300595 0.133136 3.874653 44 73 28
-0.461326 0.121812 3.876595 24 36 17
-0.453790 0.123601 3.873255 2 3 1
-0.381324 0.125676 3.877481 48 91 38
-0.373879 0.124446 3.875207 28 45 18
-0.360876 0.127631 3.876063 56 93 36
-0.353879 0.126173 3.874868 48 83 38
-0.339085 0.127584 3.874525 15 29 17
-0.331711 0.130248 3.879665 14 25 16
-0.304340 0.126263 3.875941 26 43 18
-0.468476 0.113130 3.878420 40 60 26
-0.467077 0.111600 3.871057 36 53 21
-0.444005 0.111322 3.879616 26 60 34
-0.401342 0.114203 3.874128 18 34 17
-0.384670 0.116576 3.873096 54 109 43
-0.368454 0.114215 3.875039 53 74 37
-0.351641 0.115176 3.874818 42 69 26
-0.337446 0.118101 3.873643 4 5 3
-0.303273 0.117178 3.873755 27 41 19
-0.470913 0.107742 3.875383 6 9 4
-0.438967 0.104902 3.876709 34 62 44
-0.432988 0.100681 3.875423 28 48 19
-0.384100 0.105036 3.877048 53 108 43
-0.358360 0.103377 3.876968 7 10 5
-0.351596 0.106254 3.875301 17 28 12
-0.345612 0.107922 3.879584 5 10 4
-0.302276 0.105623 3.875350 5 9 5
-0.431081 0.097249 3.878148 8 16 10
-0.379028 0.095011 3.877544 33 63 30
-0.372211 0.097147 3.873712 26 42 22
-0.358849 0.098318 3.873201 47 81 30
-0.350738 0.096868 3.873758 32 53 22
-0.393871 0.086361 3.871768 50 99 42
-0.382204 0.085883 3.873915 21 37 20
-0.370991 0.085863 3.876818 31 55 23
-0.367722 0.082579 3.875623 3 2 2
-0.389583 0.079960 3.874431 42 81 40
-0.497978 0.063186 3.873250 18 29 13
-0.382879 0.067757 3.872646 15 26 14
-0.372621 0.065695 3.874008 41 66 26
-0.364889 0.063208 3.875212 46 78 26
-0.499962 0.051461 3.874931 6 9 4
-0.492822 0.054310 3.874862 46 70 31
-0.485664 0.051407 3.871536 46 62 35
-0.357909 0.058641 3.877595 33 50 24
-0.352128 0.057525 3.874927 4 7 3
-0.483141 0.049615 3.876007 15 22 11
-0.450844 0.294542 3.888654 19 39 21
-0.446544 0.285237 3.884920 27 64 31
-0.442122 0.275079 3.882823 26 57 30
-0.433584 0.273821 3.881799 10 24 14
-0.414746 0.272540 3.884792 8 19 9
-0.440825 0.267023 3.886018 25 59 28
-0.435250 0.265980 3.884494 44 90 44
-0.420467 0.264454 3.885275 26 47 21
-0.414928 0.268491 3.884790 11 19 9
-0.318964 0.265052 3.885017 5 9 4
-0.312570 0.265773 3.882875 31 50 32
-0.433966 0.258065 3.882917 34 77 33
-0.421577 0.257623 3.882845 41 78 34
-0.416155 0.253530 3.884368 29 46 23
-0.402685 0.255817 3.886637 25 42 19
-0.391578 0.256412 3.884270 27 63 28
-0.319309 0.258611 3.886696 33 51 29
-0.316687 0.253170 3.885776 34 59 28
-0.434168 0.250024 3.884845 38 84 36
-0.419343 0.245009 3.885036 47 88 38
-0.413102 0.244080 3.885277 47 84 36
-0.398415 0.249541 3.882689 32 68 34
-0.392897 0.243910 3.885947 54 89 38
-0.372081 0.241430 3.884860 5 10 4
-0.320675 0.241451 3.888709 42 76 34
-0.313601 0.248833 3.884772 49 83 36
-0.428430 0.232593 3.884440 35 62 36
-0.419972 0.233580 3.884124 45 82 33
-0.415177 0.233036 3.884906 43 79 34
-0.398853 0.239902 3.885546 54 85 40
-0.395244 0.235816 3.884895 50 88 39
-0.372071 0.235334 3.885672 25 46 20
-0.318909 0.235343 3.885433 50 88 38
-0.317120 0.231106 3.881272 45 79 28
-0.445763 0.230150 3.881203 5 9 5
-0.418892 0.224901 3.884405 44 72 35
-0.412250 0.229171 3.886606 43 79 33
-0.403702 0.226151 3.887657 6 10 7
-0.396110 0.226948 3.886167 44 79 33
-0.374187 0.227079 3.885735 49 83 35
-0.343524 0.227602 3.885257 4 8 3
-0.334097 0.225021 3.886570 26 46 19
-0.314377 0.226956 3.883972 37 74 26
-0.421343 0.216221 3.885697 9 16 8
-0.411585 0.217141 3.885383 31 52 26
-0.404623 0.217169 3.882004 36 68 39
-0.394805 0.213612 3.884931 39 59 31
-0.386341 0.216150 3.885080 43 83 32
-0.377719 0.219408 3.885031 48 89 33
-0.330134 0.219259 3.885478 45 75 30
-0.323054 0.215402 3.885862 50 86 33
-0.313273 0.215269 3.884776 35 58 27
-0.302737 0.214525 3.887399 38 74 37
-0.423187 0.206469 3.886687 3 7 3
-0.415300 0.208206 3.884968 5 9 4
-0.404485 0.208091 3.886562 12 27 15
-0.394047 0.205816 3.885064 35 60 26
-0.349832 0.202402 3.885669 47 84 32
-0.340223 0.206137 3.886410 5 10 6
-0.334795 0.205077 3.885998 21 40 20
-0.323668 0.205347 3.885412 40 71 32
-0.313000 0.205746 3.883851 19 35 17
-0.295677 0.206741 3.888250 11 17 10
-0.409333 0.195078 3.884010 51 83 32
-0.358149 0.200012 3.888521 48 80 36
-0.350450 0.193158 3.885215 30 48 22
-0.343383 0.191770 3.887138 34 54 23
-0.334427 0.194790 3.884939 35 62 25
-0.322338 0.194623 3.885469 35 59 27
-0.314390 0.196825 3.883800 18 27 14
-0.302626 0.194261 3.885585 2 4 2
-0.413987 0.188162 3.885429 54 91 31
-0.386922 0.186926 3.884755 44 71 25
-0.343036 0.188450 3.884967 24 37 17
-0.331570 0.186550 3.884379 39 71 28
-0.319927 0.185493 3.885229 44 75 33
-0.313497 0.186728 3.884650 25 41 20
-0.306151 0.184594 3.885227 14 24 17
-0.404393 0.175153 3.885881 57 93 33
-0.386822 0.177198 3.886043 21 32 15
-0.361023 0.171457 3.886959 9 17 8
-0.355355 0.174072 3.889369 2 4 3
-0.331737 0.175080 3.885331 40 77 33
-0.324487 0.174932 3.883718 48 85 38
-0.314731 0.173796 3.886312 46 82 37
-0.302762 0.177371 3.885476 24 40 17
-0.402982 0.163460 3.885083 27 41 19
-0.361874 0.164960 3.884364 29 46 23
-0.350754 0.163729 3.887526 25 44 23
-0.343192 0.170383 3.889653 5 10 6
-0.334282 0.167953 3.886542 35 69 33
-0.320963 0.164892 3.883992 45 78 34
-0.315067 0.164898 3.884066 42 76 28
-0.293263 0.163090 3.883319 4 6 5
-0.405837 0.160369 3.881978 4 8 4
-0.380832 0.155766 3.884216 7 13 7
-0.373221 0.153990 3.883921 38 68 33
-0.351863 0.156064 3.885117 35 57 28
-0.341939 0.151105 3.889097 4 8 5
-0.330770 0.156281 3.885509 19 34 16
-0.322046 0.155546 3.886903 28 48 25
-0.313802 0.156550 3.884776 40 68 30
-0.299888 0.158224 3.883916 35 57 28
-0.294762 0.157222 3.885078 22 33 19
-0.393241 0.140978 3.887975 12 25 13
-0.370484 0.142149 3.884139 18 30 14
-0.363290 0.147069 3.885755 42 83 39
-0.354096 0.144789 3.886005 38 72 35
-0.342366 0.145032 3.887172 25 43 24
-0.330160 0.144772 3.885756 23 43 25
-0.321180 0.147348 3.883708 10 17 10
-0.312443 0.144539 3.885473 25 44 22
-0.302471 0.145784 3.884599 44 75 30
-0.392143 0.137383 3.885061 17 32 17
-0.374809 0.136820 3.883865 11 18 9
-0.363819 0.135420 3.885953 45 73 32
-0.353709 0.137873 3.886397 51 82 40
-0.343420 0.136076 3.883898 26 42 21
-0.333168 0.133588 3.885688 9 16 8
-0.325650 0.133961 3.885779 3 7 3
-0.310415 0.135808 3.886290 10 18 9
-0.301259 0.131667 3.885538 45 74 28
-0.463280 0.123692 3.884293 12 19 9
-0.396728 0.121797 3.885569 21 41 20
-0.382634 0.125325 3.885909 50 93 39
-0.372323 0.127702 3.884598 7 10 7
-0.361785 0.126249 3.883570 48 81 31
-0.354068 0.125371 3.885356 47 83 36
-0.339871 0.127516 3.884288 8 13 7
-0.302811 0.127686 3.885364 37 60 25
-0.464979 0.114817 3.883417 46 69 33
-0.399770 0.117063 3.880831 19 37 18
-0.383069 0.113715 3.882080 54 111 44
-0.370255 0.115665 3.883908 50 76 34
-0.357878 0.120338 3.888336 56 94 34
-0.353030 0.117070 3.884794 47 78 28
-0.302923 0.117891 3.885566 29 44 20
-0.472510 0.109713 3.886115 10 17 8
-0.435317 0.100697 3.882866 33 53 22
-0.381854 0.106396 3.883983 50 108 45
-0.358958 0.104605 3.884892 9 13 7
-0.350994 0.106866 3.887389 22 36 16
-0.346741 0.106943 3.883219 7 12 6
-0.302394 0.108029 3.885615 6 10 5
-0.434158 0.095303 3.884084 5 9 3
-0.379143 0.095088 3.885630 32 62 30
-0.371119 0.098760 3.883724 30 50 28
-0.360317 0.096745 3.884676 31 54 22
-0.352919 0.097849 3.884791 36 62 25
-0.394387 0.086579 3.881250 50 100 42
-0.380939 0.086811 3.881701 17 32 17
-0.373687 0.085601 3.886320 22 39 17
-0.367367 0.083423 3.884513 3 3 2
-0.389718 0.080665 3.883398 42 82 40
-0.387439 0.071745 3.888726 18 34 19
-0.500235 0.063332 3.883716 18 30 13
-0.388177 0.069934 3.880937 17 33 18
-0.381935 0.063567 3.884823 8 14 7
-0.372033 0.066019 3.884320 44 69 26
-0.364826 0.063947 3.883203 48 79 27
-0.499326 0.055440 3.884408 26 42 17
-0.494626 0.055840 3.883222 52 87 31
-0.359354 0.057051 3.884819 36 56 26
-0.354626 0.054235 3.886277 7 12 6
-0.451844 0.295088 3.897270 22 45 23
-0.447362 0.285731 3.893689 31 67 33
-0.444316 0.275813 3.895182 30 63 33
-0.418555 0.279225 3.899365 2 3 1
-0.416137 0.275009 3.894102 6 12 6
-0.441283 0.267450 3.895064 26 61 28
-0.435913 0.266565 3.898111 42 87 42
-0.420021 0.266374 3.894183 27 52 26
-0.414557 0.266388 3.894247 17 28 13
-0.404751 0.262405 3.890807 11 22 12
-0.318877 0.265093 3.893628 11 18 9
-0.436698 0.251030 3.892144 39 85 37
-0.420657 0.255284 3.894834 37 69 28
-0.414294 0.255223 3.894416 37 62 28
-0.404069 0.251396 3.892889 39 59 28
-0.316255 0.255741 3.896458 44 75 33
-0.419487 0.242590 3.893604 46 87 35
-0.414758 0.244839 3.894420 45 86 37
-0.398985 0.249680 3.892135 36 73 37
-0.393455 0.243424 3.895629 58 92 40
-0.372932 0.241145 3.894106 10 17 7
-0.321989 0.246637 3.895805 19 37 18
-0.446279 0.230855 3.899666 2 3 3
-0.432799 0.234273 3.894886 28 49 29
-0.426991 0.240185 3.893034 40 82 39
-0.415332 0.234897 3.895979 47 81 32
-0.401895 0.237432 3.894321 51 85 35
-0.393755 0.237412 3.895559 52 91 39
-0.373322 0.235219 3.894700 31 54 21
-0.318776 0.235717 3.896183 47 86 37
-0.312590 0.235475 3.892596 40 74 25
-0.446454 0.230628 3.890071 3 5 4
-0.419735 0.225938 3.894901 40 65 30
-0.411013 0.225668 3.895866 42 78 35
-0.406145 0.228266 3.895628 6 10 7
-0.396669 0.229575 3.894555 42 79 33
-0.375023 0.226795 3.894986 51 86 34
-0.341647 0.229855 3.895890 6 11 6
-0.333788 0.226051 3.894866 25 47 19
-0.324131 0.222211 3.897853 47 75 33
-0.314319 0.227246 3.895074 36 72 25
-0.419998 0.217718 3.892976 13 20 11
-0.411745 0.216198 3.894640 28 48 24
-0.405237 0.217588 3.891657 36 65 37
-0.392689 0.216495 3.894977 40 70 31
-0.378975 0.219512 3.890824 48 88 33
-0.339038 0.211322 3.899104 14 28 16
-0.328652 0.220388 3.896069 51 90 34
-0.322606 0.216517 3.894053 49 84 32
-0.313771 0.217514 3.893371 36 60 28
-0.304939 0.213519 3.895289 26 51 26
-0.420477 0.208749 3.894585 2 3 1
-0.417687 0.208606 3.895302 15 25 11
-0.401806 0.206351 3.894661 25 45 16
-0.394423 0.206093 3.895560 28 45 18
-0.351385 0.202489 3.894705 44 82 30
-0.338450 0.206168 3.894888 20 40 19
-0.334187 0.205782 3.894554 18 33 17
-0.323409 0.203195 3.896651 39 68 29
-0.314154 0.204423 3.894754 26 46 23
-0.296503 0.206785 3.896450 7 13 7
-0.409412 0.196245 3.896418 56 86 33
-0.387352 0.191104 3.892151 44 74 24
-0.359962 0.200507 3.894076 46 78 36
-0.353039 0.194625 3.899616 3 6 2
-0.342421 0.192128 3.895630 32 52 22
-0.333161 0.193413 3.894615 40 69 27
-0.322468 0.195973 3.895513 27 46 23
-0.313184 0.195274 3.895653 9 14 7
-0.302874 0.197323 3.897091 2 4 4
-0.414407 0.189210 3.894916 57 93 34
-0.388810 0.185685 3.895019 44 70 27
-0.352307 0.189957 3.896608 28 44 23
-0.344491 0.186573 3.893882 19 31 14
-0.332301 0.186652 3.894419 32 61 26
-0.320752 0.186767 3.895909 44 75 34
-0.314296 0.186270 3.893875 29 47 23
-0.304969 0.183790 3.894984 33 54 23
-0.405332 0.176449 3.895638 56 92 34
-0.388755 0.179310 3.896970 20 32 15
-0.362382 0.172215 3.894551 14 21 11
-0.356235 0.173357 3.896297 2 5 4
-0.343491 0.171510 3.899539 4 8 4
-0.331885 0.174683 3.894789 40 76 32
-0.323322 0.174648 3.894441 45 82 35
-0.313626 0.173120 3.895185 44 78 36
-0.302206 0.179059 3.895042 17 28 11
-0.402931 0.163478 3.896309 20 31 17
-0.379231 0.162116 3.898768 13 27 13
-0.363366 0.165245 3.895536 32 49 24
-0.351792 0.164332 3.895179 27 46 23
-0.329797 0.167808 3.896379 46 83 33
-0.320151 0.165666 3.894490 41 76 34
-0.314885 0.165665 3.894915 44 77 29
-0.299164 0.161227 3.894559 30 45 26
-0.294682 0.165339 3.894877 4 6 4
-0.380326 0.159173 3.890845 12 26 13
-0.373750 0.154865 3.893784 36 63 31
-0.354669 0.157834 3.896475 34 53 25
-0.344773 0.152327 3.896695 28 44 22
-0.331039 0.157311 3.894136 15 27 13
-0.322175 0.156587 3.895952 27 45 25
-0.315214 0.156569 3.895085 39 69 32
-0.302593 0.156468 3.894947 41 66 27
-0.294681 0.158667 3.894846 20 31 18
-0.398553 0.146797 3.898524 1 1 0
-0.393816 0.143288 3.894285 9 17 9
-0.371595 0.142719 3.894819 22 35 18
-0.365171 0.146295 3.894739 42 81 38
-0.351135 0.144603 3.895336 38 65 34
-0.342089 0.146593 3.896106 25 43 23
-0.329936 0.146821 3.894767 16 30 17
-0.319465 0.148438 3.893507 8 14 8
-0.313414 0.145747 3.895664 24 45 22
-0.301576 0.146337 3.893669 43 74 31
-0.388843 0.135431 3.895998 38 81 40
-0.383347 0.131852 3.894927 42 69 33
-0.374107 0.136925 3.894437 14 22 11
-0.363716 0.136383 3.895814 43 75 33
-0.355245 0.138126 3.896840 47 81 41
-0.344565 0.136487 3.894089 26 45 23
-0.333949 0.134005 3.893253 8 13 6
-0.326285 0.137096 3.897040 3 5 2
-0.310687 0.137415 3.894703 13 23 13
-0.301707 0.130737 3.898678 34 55 25
-0.468005 0.120717 3.892404 39 57 28
-0.465543 0.126081 3.895419 3 6 3
-0.394226 0.126274 3.895432 25 47 25
-0.382946 0.124561 3.896674 54 107 44
-0.372219 0.126966 3.895315 6 10 7
-0.361649 0.126396 3.893935 50 85 31
-0.355100 0.126112 3.896758 47 83 36
-0.341242 0.128368 3.893638 13 19 11
-0.302993 0.127933 3.893320 39 63 27
-0.411946 0.114287 3.897514 1 4 2
-0.382463 0.114520 3.894881 54 111 43
-0.373085 0.119204 3.894627 49 76 32
-0.352905 0.113874 3.894372 44 72 26
-0.302724 0.118494 3.894452 31 46 21
-0.471459 0.109658 3.891966 13 22 11
-0.381184 0.107055 3.892285 50 107 46
-0.369996 0.101468 3.893566 26 50 30
-0.361750 0.105513 3.892943 19 28 14
-0.352991 0.107113 3.897265 17 28 12
-0.347714 0.107984 3.892653 11 18 8
-0.302435 0.110084 3.895701 7 12 7
-0.439839 0.100364 3.894601 37 60 24
-0.435746 0.095983 3.894152 7 11 5
-0.380078 0.095640 3.896315 24 47 24
-0.372267 0.095915 3.893110 23 39 22
-0.361527 0.095490 3.893975 23 40 17
-0.354618 0.096547 3.894374 23 39 16
-0.345832 0.092637 3.891613 3 5 3
-0.393393 0.085059 3.894421 48 94 42
-0.381673 0.090407 3.892033 14 26 14
-0.371981 0.085759 3.893984 38 63 30
-0.367096 0.084203 3.893487 3 4 2
-0.387434 0.072631 3.897487 21 38 22
-0.502723 0.063360 3.894311 21 33 15
-0.382763 0.064370 3.895720 7 13 6
-0.372944 0.068311 3.895660 42 67 27
-0.364699 0.063000 3.894224 48 78 29
-0.499310 0.058980 3.894590 47 76 30
-0.496895 0.054096 3.895481 57 97 34
-0.360443 0.057658 3.893949 40 60 28
-0.356384 0.052990 3.896451 12 19 9
-0.458077 0.305220 3.908833 11 23 11
-0.456380 0.304469 3.900813 7 15 7
-0.452409 0.295504 3.906248 25 51 26
-0.448142 0.286214 3.902482 34 71 34
-0.444551 0.276364 3.909127 33 69 33
-0.422033 0.275916 3.906433 7 13 6
-0.414846 0.274191 3.904096 6 12 7
-0.440645 0.267845 3.904984 27 63 27
-0.436605 0.267028 3.906967 40 86 38
-0.422605 0.264808 3.904142 34 63 30
-0.412343 0.263738 3.904393 18 30 14
-0.403196 0.261454 3.902822 13 26 13
-0.320428 0.265910 3.905742 14 23 12
-0.439792 0.252336 3.903683 39 85 37
-0.420321 0.255515 3.906084 37 71 26
-0.416569 0.253058 3.904458 49 81 34
-0.401706 0.252457 3.907271 44 82 37
-0.316479 0.257866 3.904625 44 76 33
-0.429720 0.241385 3.904870 41 81 41
-0.420733 0.242733 3.905271 46 85 33
-0.416404 0.245922 3.906162 45 89 35
-0.401200 0.249302 3.902900 44 75 35
-0.394403 0.243159 3.905062 59 93 41
-0.374725 0.241041 3.906062 18 30 13
-0.322477 0.245639 3.906617 25 47 24
-0.436770 0.235837 3.905668 20 37 21
-0.419358 0.234552 3.906224 46 81 29
-0.413936 0.235131 3.905803 43 78 31
-0.399311 0.237616 3.906177 54 89 37
-0.392956 0.236639 3.907306 48 88 38
-0.374397 0.235030 3.903814 36 61 24
-0.340687 0.230892 3.908777 12 18 11
-0.318726 0.236652 3.905311 49 85 33
-0.315929 0.233955 3.903402 38 75 27
-0.422229 0.223384 3.904734 29 45 24
-0.413258 0.226382 3.904070 35 63 30
-0.406371 0.228987 3.902248 6 9 6
-0.396363 0.228904 3.903505 40 78 32
-0.375917 0.226537 3.904197 53 88 34
-0.341253 0.230265 3.902265 8 13 8
-0.333545 0.226336 3.905737 34 62 27
-0.325051 0.222401 3.905845 50 81 35
-0.313850 0.225979 3.904872 37 73 29
-0.421800 0.216843 3.902992 5 9 5
-0.412823 0.216845 3.903795 25 40 20
-0.401950 0.218162 3.906314 35 57 29
-0.394234 0.215981 3.904931 40 69 30
-0.382231 0.220027 3.901999 45 84 30
-0.339467 0.212411 3.908836 14 26 15
-0.328437 0.220580 3.902303 52 91 35
-0.322922 0.214547 3.904613 44 83 29
-0.314168 0.217934 3.905326 39 62 30
-0.306009 0.213079 3.903765 19 38 20
-0.417807 0.209504 3.904622 19 29 15
-0.406583 0.209473 3.904902 7 13 7
-0.395079 0.206473 3.907853 16 26 14
-0.355038 0.203755 3.902465 43 81 32
-0.338753 0.204425 3.906175 32 58 29
-0.333903 0.207016 3.904437 19 34 17
-0.322628 0.203076 3.905414 36 61 29
-0.313847 0.204040 3.904239 22 40 20
-0.296925 0.207214 3.905067 6 11 6
-0.409328 0.197053 3.905643 56 87 34
-0.390309 0.193852 3.903687 44 73 25
-0.360466 0.200010 3.903741 44 76 37
-0.352196 0.195846 3.906436 3 7 3
-0.342383 0.193122 3.905474 32 54 22
-0.332975 0.194696 3.905505 36 64 26
-0.321677 0.194901 3.904579 32 54 26
-0.312941 0.193900 3.904537 16 25 13
-0.303106 0.196521 3.905339 2 4 3
-0.413610 0.189690 3.903784 56 92 34
-0.406794 0.181303 3.909036 54 92 34
-0.390578 0.184371 3.905203 32 50 21
-0.352790 0.189453 3.906275 21 36 18
-0.345557 0.190525 3.901451 13 24 10
-0.332221 0.186801 3.905343 35 65 27
-0.321293 0.187110 3.906363 44 77 34
-0.314080 0.186883 3.904128 27 46 22
-0.304587 0.183459 3.907440 32 53 22
-0.405521 0.176289 3.903877 56 90 36
-0.362987 0.174857 3.905466 8 12 8
-0.357122 0.172944 3.903035 4 7 5
-0.333284 0.174148 3.904829 33 62 27
-0.323238 0.175519 3.904641 43 81 35
-0.313214 0.174356 3.904036 47 80 36
-0.300938 0.177503 3.902928 15 23 10
-0.403081 0.164410 3.905665 21 31 16
-0.379791 0.162453 3.909519 14 27 14
-0.360198 0.168285 3.907464 29 44 23
-0.352350 0.166089 3.904549 22 37 20
-0.342299 0.169071 3.903024 18 33 18
-0.328866 0.165896 3.904407 38 67 28
-0.321434 0.166892 3.905340 41 74 32
-0.314335 0.165001 3.904664 40 70 28
-0.299794 0.162407 3.902895 29 45 26
-0.378348 0.155068 3.906216 16 26 15
-0.373130 0.155242 3.903939 40 73 36
-0.366935 0.158768 3.902940 46 77 31
-0.352961 0.158739 3.905327 46 70 35
-0.345916 0.153749 3.903810 29 46 23
-0.331664 0.158291 3.906551 12 23 11
-0.323222 0.156232 3.905132 26 44 23
-0.316277 0.156134 3.904256 35 62 30
-0.304766 0.154137 3.905688 45 75 32
-0.294547 0.159873 3.904488 16 26 14
-0.395448 0.146098 3.903754 7 15 8
-0.373093 0.145072 3.902987 5 10 5
-0.364006 0.146663 3.905105 40 75 36
-0.351163 0.146240 3.905580 37 64 34
-0.342112 0.147045 3.906861 18 34 20
-0.332501 0.141868 3.906133 8 15 9
-0.324742 0.145853 3.904943 33 55 30
-0.311832 0.146424 3.905702 25 43 22
-0.299557 0.146125 3.905203 43 74 32
-0.399910 0.133286 3.900715 3 6 4
-0.388606 0.137472 3.906652 36 64 33
-0.381103 0.135000 3.905346 25 44 20
-0.372341 0.137627 3.906557 24 38 18
-0.364599 0.135627 3.905472 45 79 35
-0.354218 0.138713 3.905282 45 77 36
-0.340286 0.137359 3.904562 15 26 13
-0.334200 0.133534 3.900917 10 17 9
-0.326703 0.137302 3.906063 5 5 3
-0.312745 0.138923 3.904395 10 16 9
-0.472910 0.124816 3.905134 22 30 17
-0.393111 0.128983 3.907141 26 51 27
-0.382581 0.125307 3.905175 54 108 44
-0.374983 0.124412 3.905054 35 52 25
-0.360667 0.124969 3.904855 46 80 30
-0.351240 0.125516 3.903109 44 80 35
-0.342598 0.128417 3.903475 15 24 12
-0.302596 0.128508 3.905257 40 64 26
-0.414031 0.112479 3.909088 2 5 4
-0.381722 0.115385 3.907554 54 110 41
-0.356095 0.115296 3.906281 48 82 30
-0.302654 0.115437 3.904825 17 26 13
-0.380764 0.107780 3.905234 49 103 44
-0.374857 0.102190 3.904448 37 70 40
-0.364416 0.108444 3.904062 24 37 19
-0.352990 0.107538 3.904615 19 32 14
-0.437254 0.096688 3.904165 10 17 8
-0.368306 0.097797 3.904778 15 29 19
-0.357252 0.098697 3.904289 43 73 28
-0.393522 0.083945 3.906219 46 92 42
-0.380799 0.088275 3.907515 14 22 11
-0.374338 0.086084 3.904357 41 63 31
-0.367607 0.084369 3.903312 3 3 1
-0.387437 0.073504 3.906254 22 41 26
-0.503900 0.063623 3.901072 21 34 15
-0.382506 0.066176 3.905455 7 13 7
-0.374289 0.068581 3.906024 39 61 27
-0.365976 0.063070 3.903648 48 78 29
-0.500570 0.056152 3.902588 51 87 30
-0.387713 0.060509 3.906196 1 3 2
-0.361975 0.058236 3.906238 42 66 27
-0.357321 0.054023 3.905327 19 29 15
-0.457978 0.305434 3.918366 16 32 17
-0.452959 0.295916 3.915231 28 57 28
-0.448619 0.283717 3.916059 10 21 10
-0.447735 0.286345 3.912275 35 75 35
-0.444268 0.276630 3.918779 33 72 32
-0.422675 0.275141 3.915110 11 22 10
-0.414582 0.272949 3.914759 10 23 12
-0.439885 0.268047 3.914337 34 75 31
-0.429226 0.262772 3.917442 43 86 40
-0.421405 0.266646 3.915513 35 63 30
-0.415762 0.262962 3.914966 13 24 10
-0.401673 0.265033 3.912593 9 18 10
-0.319765 0.267675 3.916912 17 29 14
-0.443369 0.253782 3.914801 39 85 37
-0.420056 0.255520 3.915382 37 69 27
-0.416879 0.252310 3.914973 50 78 36
-0.404949 0.254845 3.917003 33 65 29
-0.315829 0.257263 3.915106 45 81 31
-0.432943 0.242730 3.916274 40 77 41
-0.420321 0.246416 3.915911 52 87 31
-0.415566 0.246321 3.915765 43 86 31
-0.400201 0.247918 3.913898 49 79 38
-0.394550 0.245459 3.917684 53 91 40
-0.379182 0.247921 3.918996 7 14 7
-0.375940 0.240908 3.915090 24 43 18
-0.322449 0.244379 3.915670 34 63 27
-0.439105 0.236789 3.913116 16 30 18
-0.421018 0.233257 3.914135 44 79 31
-0.413140 0.235546 3.916137 35 63 23
-0.399579 0.236514 3.916440 52 85 34
-0.396470 0.239244 3.918917 44 86 43
-0.374181 0.234305 3.913610 40 69 28
-0.339957 0.231729 3.915415 13 24 13
-0.318406 0.236936 3.914066 47 83 30
-0.316090 0.234049 3.913938 36 72 26
-0.429442 0.221643 3.918548 2 4 1
-0.421622 0.225365 3.915647 29 49 25
-0.414312 0.224714 3.912915 31 56 27
-0.400946 0.220704 3.917140 36 53 25
-0.395576 0.226595 3.914446 40 77 30
-0.376170 0.226012 3.913741 52 87 33
-0.331284 0.226211 3.915124 35 60 27
-0.323626 0.223079 3.913436 48 77 34
-0.314078 0.225600 3.915802 32 60 27
-0.307748 0.226704 3.915845 40 84 38
-0.423413 0.217732 3.911460 3 4 4
-0.414654 0.216567 3.915749 20 32 17
-0.402525 0.215992 3.915214 31 55 29
-0.394495 0.216314 3.915399 42 74 33
-0.379727 0.218368 3.913030 45 83 29
-0.339831 0.214898 3.919649 13 25 14
-0.335915 0.211915 3.913038 5 11 7
-0.321891 0.214271 3.915976 40 76 26
-0.313773 0.218346 3.914480 36 56 27
-0.305991 0.213834 3.914386 18 37 19
-0.414530 0.207089 3.915120 32 51 25
-0.403320 0.207504 3.918736 5 9 5
-0.395422 0.209496 3.916785 26 39 23
-0.359578 0.204997 3.916324 45 81 31
-0.353237 0.205222 3.912894 44 83 32
-0.339821 0.202886 3.919145 44 76 36
-0.334033 0.206363 3.915471 28 49 26
-0.322913 0.203883 3.914574 26 43 20
-0.313809 0.205229 3.916443 19 32 16
-0.301304 0.201524 3.919870 2 3 3
-0.296592 0.208365 3.914467 6 11 6
-0.410261 0.195311 3.915064 56 90 36
-0.391748 0.195641 3.914291 43 72 24
-0.362357 0.200031 3.915878 45 70 33
-0.352921 0.194388 3.914737 5 10 4
-0.341426 0.194342 3.915060 30 50 22
-0.331979 0.194524 3.914944 41 72 28
-0.321750 0.195351 3.915426 36 60 28
-0.313594 0.195198 3.913001 8 13 6
-0.303095 0.195774 3.916125 3 6 4
-0.412570 0.190054 3.912525 54 93 32
-0.404970 0.181020 3.914304 54 92 34
-0.392164 0.185055 3.914605 28 44 18
-0.353223 0.188922 3.915959 16 27 15
-0.340007 0.186906 3.914990 39 82 30
-0.332417 0.186069 3.914576 37 68 29
-0.322246 0.186347 3.915473 41 73 33
-0.314838 0.187616 3.913579 30 51 24
-0.304833 0.185997 3.916426 18 28 15
-0.406326 0.175597 3.914373 58 89 37
-0.362330 0.174977 3.916336 11 17 10
-0.339738 0.173459 3.914387 31 60 27
-0.329267 0.175901 3.916102 47 78 35
-0.322092 0.176563 3.914887 45 84 33
-0.313295 0.174490 3.914619 35 60 32
-0.299224 0.173291 3.915990 10 17 11
-0.402973 0.165220 3.914881 19 29 14
-0.379115 0.164732 3.918153 16 31 16
-0.376533 0.160691 3.913068 31 58 33
-0.361366 0.164007 3.914692 37 56 31
-0.351652 0.165641 3.916225 16 29 16
-0.346272 0.163071 3.915087 2 5 2
-0.329650 0.166375 3.917254 36 64 26
-0.321685 0.167497 3.915576 43 77 33
-0.314664 0.165464 3.913668 46 80 33
-0.300269 0.164277 3.913719 26 41 24
-0.295497 0.161580 3.913493 17 29 15
-0.379705 0.155957 3.915395 10 19 10
-0.370891 0.155751 3.914545 44 81 40
-0.364287 0.154863 3.910802 40 72 33
-0.350996 0.158600 3.912757 35 57 26
-0.344504 0.152893 3.915371 10 18 10
-0.331221 0.158760 3.915649 17 33 15
-0.322470 0.156075 3.914081 24 41 20
-0.314824 0.155374 3.913470 38 71 34
-0.304100 0.157738 3.914867 46 72 32
-0.398132 0.147667 3.915908 2 5 2
-0.391021 0.142891 3.914834 22 35 19
-0.371020 0.146451 3.914531 20 34 18
-0.364335 0.145276 3.915038 39 69 34
-0.352877 0.147411 3.916495 39 67 33
-0.341554 0.144519 3.916369 30 48 27
-0.330678 0.145494 3.914743 20 37 21
-0.320953 0.145789 3.914435 33 54 24
-0.312578 0.146004 3.915631 21 35 18
-0.299499 0.147690 3.915011 44 72 32
-0.400181 0.134091 3.911317 3 6 4
-0.392198 0.131004 3.914716 29 56 31
-0.382761 0.135968 3.915931 26 49 22
-0.371045 0.138088 3.915342 32 50 26
-0.363796 0.137718 3.916013 48 82 35
-0.352927 0.137484 3.915185 43 73 34
-0.342451 0.137374 3.915552 14 24 13
-0.333294 0.133175 3.911678 8 16 9
-0.327268 0.139499 3.916589 4 5 3
-0.309749 0.135274 3.915419 9 14 8
-0.301281 0.131897 3.914351 37 57 27
-0.408129 0.121718 3.918772 3 8 4
-0.381551 0.126683 3.914866 54 92 40
-0.377825 0.125514 3.912342 51 103 39
-0.361661 0.126717 3.914753 47 84 33
-0.344422 0.129513 3.915946 21 31 19
-0.330210 0.123296 3.917989 2 3 1
-0.302830 0.128175 3.914453 44 70 27
-0.413449 0.114074 3.917088 3 6 4
-0.381183 0.115982 3.915954 53 109 40
-0.368166 0.113670 3.916885 38 53 27
-0.355913 0.113590 3.914026 40 66 27
-0.328776 0.119791 3.913733 1 2 1
-0.302928 0.117051 3.915226 17 27 13
-0.380786 0.108310 3.918553 51 101 42
-0.373107 0.103989 3.915094 33 63 35
-0.366390 0.110549 3.912460 32 45 25
-0.351986 0.107045 3.915846 23 35 18
-0.365010 0.099807 3.915232 13 26 15
-0.355206 0.093843 3.919398 3 5 2
-0.394326 0.083797 3.916050 45 92 42
-0.379593 0.086065 3.914926 25 34 19
-0.374147 0.085270 3.915203 46 70 33
-0.353342 0.090386 3.915215 2 4 1
-0.387763 0.073970 3.915441 19 37 23
-0.371170 0.077798 3.919181 46 77 31
-0.509401 0.062122 3.913495 21 34 14
-0.383650 0.066585 3.914674 6 10 6
-0.373527 0.068583 3.914382 41 66 27
-0.364533 0.066481 3.915049 38 63 25
-0.357518 0.064772 3.916532 7 9 6
-0.508406 0.056955 3.918267 47 79 28
-0.506693 0.056963 3.911193 47 79 28
-0.391065 0.057171 3.919393 2 4 2
-0.359906 0.056181 3.914654 27 44 17
-0.458595 0.305861 3.927285 18 39 20
-0.454132 0.296512 3.923679 28 61 28
-0.450705 0.284185 3.923775 13 29 15
-0.447775 0.286607 3.921678 37 79 36
-0.422745 0.289832 3.927071 2 2 2
-0.444048 0.276924 3.928365 34 74 34
-0.422336 0.274312 3.925896 22 43 20
-0.414091 0.271683 3.925426 8 13 6
-0.440886 0.264920 3.923911 33 75 30
-0.430936 0.263677 3.925846 42 85 39
-0.421903 0.265389 3.925622 31 56 26
-0.401803 0.265130 3.922761 13 24 13
-0.319716 0.267680 3.925462 23 38 17
-0.445775 0.254753 3.922194 41 86 38
-0.428506 0.260524 3.924793 36 79 32
-0.419730 0.256104 3.924441 45 79 31
-0.404317 0.256037 3.925637 35 72 30
-0.397355 0.258438 3.921795 30 72 28
-0.315540 0.257496 3.926652 46 82 29
-0.436025 0.243898 3.923083 37 72 38
-0.422089 0.244649 3.924414 47 87 35
-0.415786 0.247194 3.927067 44 84 36
-0.400546 0.244203 3.923639 55 86 38
-0.395128 0.244948 3.925235 51 88 39
-0.377551 0.246810 3.926317 10 20 9
-0.321803 0.244331 3.925088 38 70 29
-0.442822 0.238280 3.924103 11 19 11
-0.428013 0.237065 3.928002 39 76 40
-0.423000 0.234148 3.924466 43 76 31
-0.414423 0.237018 3.925724 35 66 24
-0.399987 0.236854 3.926356 46 82 29
-0.396917 0.239548 3.928725 43 84 41
-0.375117 0.236888 3.925595 36 65 26
-0.339051 0.232747 3.925210 21 34 17
-0.318338 0.236970 3.925511 44 79 29
-0.315886 0.234494 3.924712 37 71 28
-0.422396 0.224268 3.924558 22 37 19
-0.413565 0.226473 3.924489 34 63 30
-0.401891 0.221878 3.924185 36 53 25
-0.395121 0.225168 3.924837 40 78 30
-0.378668 0.222965 3.928907 46 85 30
-0.376824 0.226528 3.925071 51 87 34
-0.332635 0.227564 3.924718 39 69 30
-0.324586 0.223328 3.925489 49 83 35
-0.314175 0.226000 3.923606 32 58 27
-0.307708 0.227557 3.924915 40 84 38
-0.421052 0.216891 3.925823 6 9 6
-0.416122 0.216512 3.924837 12 24 12
-0.400174 0.215869 3.925811 40 65 28
-0.395439 0.218327 3.923286 44 81 32
-0.363007 0.212401 3.926309 45 83 29
-0.335091 0.214425 3.924264 4 9 4
-0.323022 0.215617 3.924273 42 80 27
-0.312684 0.217807 3.925130 38 64 32
-0.305672 0.214853 3.922700 22 47 24
-0.412939 0.207285 3.924598 37 57 29
-0.396284 0.209004 3.926549 22 32 18
-0.361393 0.205233 3.925180 47 83 33
-0.356163 0.209342 3.920472 46 84 30
-0.339615 0.202575 3.926615 26 48 22
-0.333066 0.207629 3.925447 22 41 22
-0.322509 0.205451 3.925366 26 43 21
-0.313764 0.205858 3.925116 16 28 14
-0.297385 0.208440 3.922680 6 10 6
-0.409121 0.195908 3.926830 56 92 36
-0.393868 0.194548 3.924664 43 70 25
-0.363304 0.199783 3.925255 41 64 29
-0.350833 0.197589 3.925740 9 16 8
-0.341280 0.194517 3.924926 35 60 26
-0.332532 0.194586 3.926012 42 70 29
-0.322607 0.196389 3.924265 34 58 28
-0.312497 0.195979 3.924050 8 16 8
-0.303423 0.196163 3.927018 4 8 6
-0.407922 0.182968 3.921945 53 91 33
-0.406199 0.182731 3.927255 52 90 33
-0.394186 0.185108 3.926213 21 32 15
-0.353224 0.188150 3.925891 11 18 11
-0.338078 0.187971 3.925054 38 73 31
-0.330795 0.185043 3.923943 43 76 33
-0.322030 0.186394 3.925238 45 80 36
-0.313986 0.186755 3.925558 36 60 28
-0.305084 0.186511 3.923428 15 25 13
-0.409378 0.178167 3.928231 57 89 37
-0.406324 0.176167 3.920546 57 88 37
-0.360756 0.177138 3.923524 10 16 9
-0.339184 0.178684 3.921814 41 78 34
-0.331574 0.176063 3.925722 41 70 32
-0.322492 0.176491 3.925965 43 79 32
-0.313697 0.176213 3.924163 35 60 32
-0.299868 0.173933 3.925537 10 19 12
-0.403354 0.166260 3.924335 20 31 15
-0.379229 0.165769 3.928129 18 36 18
-0.376246 0.162406 3.922683 30 58 33
-0.362245 0.165931 3.924725 33 52 27
-0.351963 0.163906 3.923950 39 61 32
-0.343011 0.163777 3.925424 12 24 13
-0.332380 0.163422 3.926809 16 33 13
-0.323341 0.167578 3.923781 41 73 32
-0.314522 0.166318 3.924305 44 75 32
-0.302024 0.164241 3.923262 33 52 29
-0.297443 0.163999 3.924976 25 39 21
-0.381040 0.156085 3.925026 7 10 7
-0.372138 0.156644 3.924057 41 74 38
-0.352661 0.151910 3.927446 40 72 34
-0.346322 0.154471 3.926223 14 24 15
-0.330753 0.158825 3.924905 19 36 18
-0.321709 0.156481 3.925013 29 52 23
-0.314735 0.155258 3.923761 32 54 27
-0.305572 0.154056 3.924902 45 73 29
-0.393773 0.146762 3.924075 14 23 12
-0.371587 0.143885 3.924730 27 42 22
-0.362188 0.145698 3.925182 42 83 39
-0.352528 0.149195 3.924269 39 67 37
-0.343119 0.147626 3.926304 32 54 29
-0.330189 0.143534 3.927244 3 7 4
-0.321772 0.147040 3.924616 28 47 23
-0.313423 0.146099 3.925213 20 32 17
-0.299504 0.149541 3.924945 44 72 32
-0.392610 0.131336 3.924046 31 59 33
-0.382644 0.134844 3.925066 37 65 29
-0.372178 0.137485 3.925507 19 31 16
-0.363662 0.135912 3.924484 51 85 35
-0.351944 0.137254 3.925693 46 76 37
-0.344775 0.134942 3.925825 24 38 21
-0.333717 0.134373 3.921509 8 15 8
-0.309633 0.135705 3.925736 9 14 7
-0.301409 0.134318 3.924565 39 60 29
-0.383256 0.127670 3.923306 54 98 41
-0.363247 0.127480 3.924596 45 80 30
-0.332288 0.128081 3.924680 4 6 3
-0.303026 0.126389 3.924003 32 52 20
-0.381181 0.116338 3.924814 54 110 41
-0.370490 0.117083 3.924387 42 60 27
-0.358886 0.117949 3.924587 49 86 32
-0.354967 0.112619 3.925721 33 54 23
-0.339084 0.116722 3.924105 2 5 2
-0.302362 0.117140 3.926197 19 31 14
-0.381150 0.108506 3.927724 52 101 42
-0.372826 0.105235 3.924092 32 63 34
-0.365862 0.105565 3.928764 20 37 21
-0.352771 0.107947 3.924995 27 40 21
-0.359529 0.099016 3.924895 32 52 20
-0.356871 0.096559 3.924088 4 6 3
-0.395047 0.083755 3.925761 45 92 42
-0.380515 0.087027 3.923786 22 30 16
-0.375240 0.085775 3.924316 44 68 31
-0.388148 0.074359 3.924700 18 34 20
-0.371877 0.078199 3.925216 46 76 29
-0.367438 0.074705 3.926988 46 75 29
-0.511074 0.062558 3.923552 21 34 15
-0.382427 0.065601 3.924600 17 27 12
-0.371368 0.067961 3.925134 45 73 29
-0.361724 0.067976 3.926329 30 45 21
-0.509180 0.057422 3.924758 48 80 30
-0.391542 0.057451 3.928758 1 3 1
-0.361860 0.057838 3.925280 34 55 22
-0.457280 0.305711 3.937825 20 43 21
-0.452805 0.296363 3.934228 28 65 28
-0.425686 0.292499 3.934879 2 4 3
-0.450382 0.284580 3.933417 16 35 20
-0.447530 0.286785 3.931313 38 81 38
-0.417302 0.280715 3.937870 1 1 1
-0.444321 0.277372 3.937526 33 75 35
-0.428709 0.271212 3.934875 41 84 42
-0.422824 0.275104 3.935255 21 32 16
-0.410082 0.274841 3.932205 6 12 6
-0.404678 0.276927 3.931510 4 9 4
-0.443893 0.264965 3.934024 36 79 33
-0.432912 0.262379 3.934884 38 83 36
-0.420496 0.264076 3.934531 25 42 17
-0.400225 0.268668 3.932576 4 8 4
-0.321515 0.267405 3.936100 13 19 11
-0.317471 0.266251 3.934273 44 68 30
-0.447120 0.255545 3.935184 41 85 40
-0.422950 0.257052 3.934017 48 81 32
-0.405325 0.256728 3.934175 37 70 30
-0.318521 0.256536 3.939926 15 32 14
-0.315281 0.257710 3.935325 45 81 26
-0.439261 0.245247 3.934466 33 65 33
-0.422770 0.244910 3.935442 47 86 34
-0.415596 0.245930 3.935188 46 76 33
-0.401383 0.243667 3.933438 55 88 39
-0.397276 0.248793 3.934240 42 81 39
-0.376996 0.245936 3.936267 17 29 14
-0.320273 0.242205 3.934968 50 88 34
-0.317442 0.247977 3.936746 39 74 37
-0.444927 0.239302 3.936445 7 12 6
-0.430870 0.238487 3.935299 37 74 38
-0.424041 0.236146 3.935499 44 78 29
-0.413690 0.236337 3.935297 33 62 23
-0.401205 0.236400 3.934719 43 79 28
-0.397165 0.239729 3.938738 40 82 39
-0.375192 0.236283 3.935208 41 73 30
-0.341348 0.234006 3.934111 16 25 12
-0.330655 0.232931 3.936367 21 30 15
-0.318337 0.236936 3.936898 39 74 24
-0.315442 0.233525 3.935351 38 77 31
-0.424877 0.227250 3.935112 25 41 21
-0.413456 0.227414 3.935766 36 71 32
-0.401778 0.222841 3.934638 38 62 28
-0.394740 0.225341 3.935221 41 78 30
-0.376696 0.227802 3.935597 51 90 37
-0.332798 0.227595 3.934163 46 80 31
-0.324752 0.223778 3.936298 50 85 34
-0.312354 0.224666 3.934408 27 47 24
-0.420611 0.217783 3.934266 5 10 5
-0.415131 0.218324 3.934422 24 42 21
-0.398893 0.215639 3.935211 37 64 28
-0.394300 0.217615 3.936726 41 78 37
-0.369004 0.214721 3.935973 45 83 32
-0.339490 0.214669 3.935152 13 26 14
-0.331830 0.212200 3.936936 31 58 35
-0.322133 0.215160 3.935492 37 72 23
-0.311656 0.217704 3.935864 30 54 27
-0.304031 0.214024 3.933985 17 36 20
-0.410185 0.206028 3.934420 42 67 31
-0.402080 0.206783 3.930360 3 6 3
-0.397183 0.208550 3.936273 18 28 15
-0.363248 0.205492 3.934002 48 83 34
-0.338665 0.202241 3.932454 6 12 6
-0.332921 0.206094 3.935292 25 45 20
-0.323136 0.205068 3.934966 28 47 23
-0.315291 0.206858 3.934422 20 35 17
-0.301903 0.203935 3.930529 2 3 3
-0.296433 0.210176 3.932703 5 9 5
-0.409024 0.196709 3.936023 56 94 36
-0.395771 0.196629 3.935525 43 70 25
-0.364346 0.199849 3.931253 38 61 28
-0.349543 0.197626 3.936776 11 18 10
-0.342311 0.195704 3.935813 33 53 25
-0.332695 0.194676 3.935633 38 64 28
-0.322249 0.196096 3.934752 39 66 31
-0.312023 0.195937 3.934795 11 19 10
-0.303557 0.196367 3.934408 2 5 4
-0.395182 0.186623 3.936529 19 29 13
-0.362728 0.182218 3.936299 19 27 17
-0.353992 0.187808 3.935352 7 12 6
-0.332329 0.185181 3.935265 45 81 36
-0.322867 0.186637 3.935133 45 79 35
-0.314421 0.187524 3.934132 35 57 27
-0.306767 0.187669 3.933135 16 27 15
-0.410818 0.179409 3.935109 56 89 37
-0.362721 0.179169 3.932362 9 14 8
-0.339729 0.174983 3.930915 29 56 29
-0.330289 0.176554 3.937663 43 76 34
-0.322016 0.174381 3.935344 44 81 32
-0.315145 0.175287 3.933128 40 72 42
-0.300627 0.174755 3.935233 13 23 15
-0.403931 0.167390 3.933875 22 33 15
-0.384500 0.165832 3.934186 5 10 7
-0.376009 0.164037 3.932382 31 58 33
-0.364576 0.167545 3.935387 34 50 29
-0.354353 0.167421 3.933817 27 43 23
-0.347249 0.164584 3.938683 2 4 3
-0.330849 0.166146 3.935366 25 48 24
-0.321682 0.165848 3.934278 40 70 30
-0.315015 0.168147 3.933642 44 79 34
-0.302679 0.165890 3.934659 33 53 28
-0.297505 0.166076 3.934998 23 36 19
-0.397370 0.151334 3.939564 4 7 5
-0.382399 0.157166 3.934074 3 4 3
-0.371661 0.155563 3.934885 39 70 36
-0.351745 0.154091 3.935455 34 61 32
-0.345592 0.152836 3.934987 34 54 29
-0.328503 0.157957 3.934209 28 55 29
-0.321312 0.157246 3.935126 31 54 25
-0.314689 0.155106 3.934288 28 49 25
-0.302672 0.153530 3.934581 43 71 33
-0.400770 0.144186 3.933086 2 1 0
-0.393613 0.146421 3.934169 19 37 18
-0.379119 0.142340 3.935166 17 23 14
-0.370335 0.144102 3.933875 32 51 25
-0.362859 0.145393 3.935234 43 81 36
-0.353526 0.149736 3.933443 38 67 37
-0.343016 0.146924 3.938809 18 33 18
-0.331432 0.144234 3.935073 10 21 12
-0.319820 0.145502 3.933883 27 47 22
-0.316202 0.146139 3.935527 19 36 19
-0.307713 0.147864 3.935182 38 61 29
-0.399437 0.138405 3.935292 4 9 6
-0.391854 0.133156 3.931823 31 59 33
-0.384684 0.136083 3.935744 40 69 32
-0.370642 0.134450 3.932240 18 29 18
-0.364561 0.136240 3.934556 50 85 35
-0.352963 0.138034 3.935318 42 73 36
-0.345730 0.138415 3.934244 24 40 20
-0.334696 0.134479 3.934229 6 12 6
-0.310052 0.133761 3.935567 7 11 6
-0.301285 0.135604 3.934225 40 60 27
-0.407845 0.123784 3.935938 6 14 8
-0.384262 0.127090 3.931927 57 112 47
-0.373970 0.121309 3.937884 49 68 32
-0.361945 0.125840 3.933500 42 75 29
-0.340980 0.122883 3.937510 5 5 4
-0.302883 0.125999 3.935571 28 45 18
-0.412432 0.117073 3.933273 6 13 8
-0.381441 0.116577 3.933893 54 109 41
-0.372606 0.119722 3.932416 47 67 30
-0.361344 0.117654 3.936278 44 78 31
-0.355475 0.113851 3.933468 33 56 22
-0.341656 0.116420 3.934469 3 5 3
-0.303365 0.115098 3.934777 8 16 7
-0.381693 0.108623 3.937040 52 101 42
-0.376847 0.102942 3.935793 37 75 38
-0.362283 0.103411 3.935532 9 17 8
-0.361372 0.099166 3.935377 45 75 30
-0.397962 0.087268 3.938590 47 102 42
-0.381533 0.088880 3.935270 14 21 10
-0.374340 0.085692 3.935411 28 43 19
-0.391141 0.077346 3.933256 29 57 30
-0.372903 0.078889 3.934211 43 74 27
-0.513864 0.062426 3.934282 19 31 13
-0.382228 0.066695 3.932348 19 29 16
-0.371519 0.067686 3.932602 44 72 28
-0.362886 0.064701 3.935488 31 50 21
-0.511536 0.057514 3.935218 49 77 34
-0.392677 0.056900 3.938988 1 2 1
-0.360729 0.056638 3.935312 30 47 21
-0.356052 0.053733 3.936807 4 9 3
-0.463475 0.315701 3.944692 10 20 11
-0.457934 0.306150 3.946694 23 49 25
-0.453424 0.294036 3.945730 34 73 33
-0.426351 0.291165 3.945336 5 11 7
-0.449342 0.286282 3.946134 29 63 30
-0.447684 0.287081 3.940602 39 83 39
-0.443535 0.277629 3.947549 34 75 34
-0.429915 0.276088 3.942187 37 75 38
-0.424274 0.275908 3.944190 20 34 17
-0.412539 0.276530 3.945610 21 40 21
-0.405734 0.274819 3.943870 7 17 9
-0.319947 0.270894 3.946189 22 34 15
-0.441800 0.266114 3.946607 34 76 32
-0.433641 0.263392 3.946099 40 85 38
-0.421992 0.265058 3.945331 29 47 21
-0.409617 0.264893 3.946377 22 32 17
-0.323343 0.262356 3.948198 7 10 7
-0.316956 0.266693 3.945910 45 72 27
-0.447226 0.255974 3.949203 41 82 42
-0.420699 0.254599 3.944086 49 83 33
-0.410525 0.252872 3.944573 42 92 38
-0.403520 0.257109 3.945523 39 66 32
-0.384691 0.260413 3.949176 3 5 3
-0.318159 0.257666 3.949285 17 35 16
-0.316334 0.260208 3.944234 43 79 27
-0.443145 0.246783 3.945294 28 57 32
-0.422580 0.245390 3.945006 45 83 32
-0.416494 0.245855 3.941607 45 75 30
-0.402905 0.243361 3.946165 51 88 36
-0.396880 0.248568 3.944950 42 83 41
-0.375394 0.246627 3.945648 24 40 18
-0.320065 0.242376 3.943616 49 87 33
-0.315069 0.245574 3.947200 39 74 30
-0.446068 0.239907 3.944883 4 9 5
-0.430086 0.234910 3.946418 36 65 34
-0.425560 0.236220 3.944947 44 79 32
-0.414761 0.236502 3.946144 36 71 28
-0.402194 0.235026 3.945731 40 78 26
-0.397277 0.239825 3.948891 36 81 36
-0.374423 0.235302 3.945407 47 82 35
-0.340657 0.234743 3.943706 21 32 15
-0.330824 0.235070 3.945381 17 28 12
-0.315813 0.234963 3.945171 39 80 33
-0.431025 0.226378 3.946302 4 7 3
-0.423717 0.226604 3.944698 20 34 18
-0.414679 0.227550 3.945235 36 59 30
-0.403626 0.223811 3.944503 38 63 29
-0.391891 0.225619 3.946266 42 79 32
-0.377583 0.227542 3.944763 49 87 34
-0.332241 0.228176 3.943656 49 83 31
-0.323051 0.225517 3.945443 49 84 34
-0.312372 0.224797 3.945300 26 45 22
-0.421943 0.218899 3.944126 9 17 8
-0.400522 0.216441 3.944741 46 74 27
-0.394254 0.217454 3.944978 42 76 39
-0.373703 0.216313 3.946411 45 82 32
-0.340092 0.216067 3.944703 6 13 8
-0.334115 0.215518 3.945195 22 40 24
-0.321459 0.215906 3.945091 36 69 22
-0.312579 0.219306 3.944672 36 64 31
-0.303399 0.214840 3.947804 27 55 31
-0.409329 0.205652 3.945178 47 76 33
-0.398813 0.207380 3.944912 10 15 9
-0.397152 0.201978 3.949915 42 71 23
-0.365164 0.205526 3.946088 49 82 39
-0.340363 0.202888 3.943868 19 36 16
-0.332158 0.206324 3.946014 31 53 26
-0.322837 0.206447 3.945842 26 44 21
-0.315431 0.205914 3.946710 17 29 14
-0.301524 0.205827 3.945037 3 5 3
-0.296937 0.210524 3.941200 5 8 5
-0.409462 0.197758 3.945470 56 94 36
-0.398377 0.196141 3.949403 42 67 25
-0.396642 0.197765 3.942520 42 69 24
-0.352166 0.195832 3.945876 23 37 20
-0.340769 0.196800 3.944771 37 62 27
-0.333172 0.195982 3.945063 41 70 31
-0.322419 0.195873 3.944971 38 65 31
-0.313113 0.194522 3.945078 15 26 13
-0.305970 0.191311 3.943938 4 8 5
-0.410296 0.183327 3.947464 52 88 35
-0.396765 0.188507 3.947187 18 29 13
-0.362452 0.185260 3.945612 19 25 15
-0.354774 0.187474 3.944793 5 8 5
-0.338828 0.186798 3.943051 39 76 34
-0.331419 0.184287 3.946206 45 80 35
-0.322572 0.186998 3.945425 50 88 36
-0.314269 0.187721 3.943294 33 54 26
-0.305989 0.188050 3.943683 20 32 15
-0.411552 0.180323 3.941633 55 88 37
-0.403112 0.171176 3.946095 40 59 28
-0.361564 0.177470 3.944362 15 24 14
-0.356918 0.171440 3.942496 32 51 27
-0.340371 0.174506 3.943446 24 47 25
-0.332122 0.174040 3.946191 33 65 31
-0.322669 0.175294 3.944411 43 77 30
-0.314861 0.173731 3.943867 42 76 36
-0.303403 0.172980 3.946927 34 61 23
-0.405758 0.166365 3.946803 6 9 5
-0.385023 0.166220 3.945222 5 10 7
-0.370969 0.167594 3.945238 43 66 36
-0.364016 0.170142 3.944702 17 28 15
-0.354666 0.164557 3.943153 31 54 27
-0.347595 0.165435 3.948304 2 4 3
-0.332255 0.163657 3.944836 14 27 12
-0.320851 0.164665 3.945881 39 68 31
-0.312133 0.169668 3.943874 49 85 37
-0.302482 0.166817 3.946849 39 61 31
-0.294659 0.165507 3.944988 23 33 18
-0.399043 0.154067 3.944264 2 4 2
-0.394226 0.150792 3.947958 8 20 9
-0.382093 0.158759 3.947354 18 32 17
-0.372485 0.156150 3.944327 37 67 33
-0.362061 0.151279 3.942827 34 67 37
-0.352133 0.155980 3.943546 37 61 33
-0.345248 0.155008 3.943952 26 45 24
-0.328462 0.157127 3.943177 42 82 43
-0.321553 0.155417 3.943964 29 50 22
-0.313526 0.154572 3.944656 33 57 29
-0.304254 0.155444 3.943876 43 72 33
-0.282114 0.159823 3.947367 1 2 1
-0.400071 0.144505 3.948195 2 4 3
-0.393571 0.146987 3.944436 21 43 21
-0.381397 0.143450 3.943774 9 14 8
-0.371520 0.145210 3.945086 26 41 21
-0.364722 0.143878 3.945878 46 82 36
-0.352005 0.143231 3.945255 38 62 31
-0.343473 0.145624 3.947703 19 34 18
-0.331635 0.142466 3.943449 3 6 4
-0.322394 0.146669 3.942718 16 28 15
-0.313510 0.147070 3.946548 17 27 13
-0.390703 0.136271 3.945694 33 53 30
-0.383493 0.137802 3.945084 28 50 24
-0.373172 0.136493 3.944569 10 19 11
-0.365213 0.135937 3.943683 48 84 36
-0.353198 0.136479 3.944138 48 80 40
-0.342805 0.136476 3.943528 23 45 26
-0.336544 0.134737 3.945211 15 24 13
-0.312809 0.140089 3.942804 17 31 16
-0.303904 0.134039 3.945032 22 38 16
-0.410905 0.120723 3.948761 6 13 7
-0.384745 0.127224 3.941194 57 112 46
-0.373432 0.123879 3.945940 36 51 26
-0.361231 0.126527 3.944922 48 85 33
-0.342385 0.125895 3.945490 5 9 4
-0.302080 0.126045 3.945671 35 56 25
-0.381873 0.116739 3.943110 53 109 41
-0.360666 0.116888 3.944522 43 76 30
-0.355118 0.114084 3.944499 32 53 22
-0.344524 0.114245 3.945392 7 11 5
-0.303109 0.115638 3.943583 13 21 11
-0.381735 0.108962 3.945917 51 100 41
-0.376915 0.103272 3.944693 37 74 37
-0.364111 0.106581 3.945006 13 20 11
-0.382787 0.091237 3.949585 9 14 7
-0.373607 0.091222 3.941334 22 45 24
-0.362202 0.100397 3.944081 46 77 30
-0.398483 0.087474 3.948017 48 102 43
-0.393798 0.080748 3.941368 43 83 44
-0.380110 0.088420 3.944813 24 38 17
-0.368947 0.085576 3.941762 4 5 3
-0.366035 0.088423 3.947820 3 4 2
-0.389850 0.073964 3.944427 19 34 21
-0.380927 0.071420 3.946410 20 32 16
-0.374495 0.075695 3.944621 43 70 29
-0.517292 0.061968 3.945389 16 27 11
-0.381085 0.068565 3.941726 23 36 19
-0.364619 0.066943 3.944790 37 58 26
-0.514595 0.057248 3.946095 48 76 33
-0.360424 0.056209 3.945966 26 41 19
-0.357056 0.053358 3.943291 7 13 5
-0.458578 0.306585 3.955567 26 55 27
-0.440587 0.302295 3.954296 6 13 6
-0.429875 0.303939 3.958798 1 2 2
-0.454239 0.294552 3.954702 35 76 35
-0.443802 0.295336 3.954362 23 50 25
-0.450189 0.286831 3.954809 31 67 32
-0.429002 0.282070 3.958179 12 21 10
-0.426560 0.289863 3.952575 10 18 10
-0.450411 0.280647 3.959170 38 87 38
-0.443501 0.277965 3.956953 34 76 34
-0.430715 0.272384 3.953005 42 86 42
-0.423237 0.276002 3.957014 26 48 24
-0.414652 0.279769 3.953204 9 17 9
-0.405206 0.271822 3.958042 14 29 16
-0.323460 0.272178 3.955848 11 18 9
-0.442418 0.266644 3.955459 35 78 32
-0.433505 0.263598 3.955913 39 85 37
-0.423264 0.264614 3.954829 36 62 27
-0.408011 0.262364 3.954594 31 44 25
-0.322284 0.264132 3.958265 3 4 2
-0.316864 0.266741 3.954451 46 75 28
-0.447504 0.256321 3.958365 40 80 40
-0.430347 0.259938 3.953172 56 92 41
-0.422280 0.255529 3.954223 48 82 34
-0.413920 0.253589 3.955861 42 92 39
-0.399573 0.259284 3.958216 35 64 36
-0.384583 0.259811 3.955864 5 9 4
-0.316465 0.260046 3.956827 34 65 24
-0.444402 0.247419 3.953630 23 49 28
-0.424468 0.245891 3.955822 44 81 33
-0.411500 0.243832 3.954017 41 77 29
-0.403906 0.247034 3.954570 49 83 34
-0.397244 0.248818 3.954828 43 84 42
-0.375296 0.246487 3.955117 23 41 17
-0.319578 0.242808 3.955255 47 85 32
-0.315145 0.245891 3.954458 37 74 29
-0.445920 0.240136 3.954403 2 7 3
-0.430434 0.236600 3.955008 40 68 34
-0.418148 0.233969 3.959463 45 66 39
-0.415447 0.235623 3.954821 34 62 28
-0.402027 0.233951 3.952811 37 76 23
-0.397486 0.239981 3.958929 34 79 34
-0.372838 0.235644 3.955896 50 85 37
-0.342094 0.237042 3.956284 13 18 10
-0.332848 0.234760 3.956025 30 48 19
-0.316372 0.235667 3.954832 38 78 32
-0.433112 0.228604 3.954821 5 12 5
-0.421498 0.225605 3.955752 20 34 20
-0.410413 0.223404 3.955018 32 59 31
-0.402118 0.224409 3.954267 40 68 28
-0.392378 0.227326 3.955774 40 77 32
-0.377983 0.227080 3.954176 49 85 31
-0.367521 0.225622 3.950971 53 91 37
-0.330828 0.228378 3.955264 51 85 30
-0.323856 0.225118 3.955202 49 86 33
-0.312101 0.224294 3.955213 39 74 35
-0.437938 0.218125 3.958575 2 4 2
-0.431111 0.217544 3.954686 3 7 3
-0.422376 0.218739 3.953596 6 11 6
-0.411903 0.211523 3.954019 39 61 28
-0.401042 0.217639 3.954742 47 75 29
-0.395221 0.216933 3.955038 42 71 37
-0.383461 0.220483 3.957154 47 84 34
-0.372203 0.217947 3.956611 44 82 31
-0.340470 0.216208 3.953060 13 25 14
-0.332778 0.215596 3.957346 30 54 34
-0.320746 0.216702 3.954707 35 67 21
-0.310829 0.216786 3.954166 11 20 9
-0.302317 0.216691 3.957930 29 57 33
-0.408870 0.204363 3.955000 52 87 36
-0.399621 0.206217 3.956466 25 43 15
-0.393424 0.209557 3.955940 17 31 17
-0.366040 0.205238 3.955474 49 78 40
-0.341811 0.203042 3.954497 26 50 23
-0.332190 0.205116 3.955235 30 52 25
-0.322846 0.205729 3.955211 25 43 22
-0.315428 0.207062 3.956109 18 32 17
-0.304143 0.203922 3.952770 3 5 4
-0.409979 0.198843 3.954950 57 96 38
-0.399869 0.197669 3.956760 43 68 26
-0.356030 0.193648 3.956031 27 41 24
