ply
format ascii 1.0
element vertex 1306
property float x
property float y
property float z
property uchar red
property uchar green
property uchar blue
end_header
-1.170142 0.122913 3.974041 49 88 40
-1.164451 0.128420 3.976439 56 89 42
-1.151814 0.122352 3.975739 55 90 40
-1.146800 0.129205 3.972655 55 91 38
-1.135413 0.129102 3.974896 54 87 36
-1.113789 0.122731 3.977122 54 83 37
-1.104451 0.124275 3.977708 56 85 39
-1.092425 0.127958 3.971725 8 15 10
-1.087057 0.124090 3.972060 54 82 42
-1.052582 0.120880 3.974266 12 19 9
-1.250048 0.115537 3.975596 10 16 10
-1.244635 0.120423 3.979204 24 39 22
-1.221950 0.112810 3.971457 18 28 16
-1.212997 0.115835 3.971461 34 50 28
-1.203739 0.117836 3.973909 41 70 36
-1.195050 0.117385 3.974122 41 72 38
-1.183502 0.118069 3.973802 34 63 32
-1.174960 0.119767 3.979530 58 92 48
-1.156969 0.116995 3.977914 57 89 43
-1.139088 0.115252 3.975671 53 90 36
-1.131020 0.119956 3.974439 54 90 35
-1.121884 0.117032 3.974570 54 89 37
-1.113066 0.117417 3.972681 56 90 37
-1.101948 0.117556 3.974811 56 86 38
-1.090686 0.116113 3.973372 56 87 40
-1.081087 0.113624 3.977157 52 83 37
-1.072843 0.114721 3.972433 52 85 37
-1.065149 0.117538 3.973939 42 63 34
-1.052084 0.117723 3.976385 11 19 9
-1.040453 0.114251 3.975541 11 18 9
-1.032424 0.113851 3.975736 5 9 4
-1.243569 0.104115 3.974485 1 3 1
-1.232462 0.108696 3.973202 8 13 6
-1.212376 0.108322 3.975367 16 30 17
-1.203145 0.104224 3.972905 15 25 14
-1.193151 0.106083 3.973362 30 46 28
-1.182719 0.106704 3.974117 44 71 39
-1.172577 0.108542 3.973090 47 80 43
-1.163764 0.108100 3.971696 39 79 36
-1.155895 0.106290 3.971288 46 82 42
-1.144244 0.109877 3.977859 53 89 39
-1.131332 0.100687 3.979077 54 86 43
-1.126357 0.107947 3.975735 55 88 41
-1.113754 0.101833 3.975075 55 90 40
-1.103204 0.106742 3.978378 56 88 38
-1.091350 0.104754 3.977389 55 88 37
-1.082535 0.105294 3.976176 49 79 34
-1.073382 0.105858 3.975462 39 65 27
-1.065047 0.103548 3.976719 26 42 20
-1.054394 0.105686 3.973034 18 28 14
-1.045010 0.108955 3.970662 3 9 3
-1.215082 0.096780 3.975579 4 6 4
-1.206745 0.099332 3.975120 10 17 9
-1.192344 0.096792 3.973216 10 18 11
-1.180986 0.092816 3.975552 20 32 19
-1.172819 0.095259 3.974496 31 50 31
-1.164587 0.097589 3.973818 42 67 40
-1.152847 0.093461 3.972700 38 66 37
-1.142684 0.096375 3.970988 43 78 40
-1.136717 0.097706 3.979807 53 84 44
-1.121641 0.095326 3.977416 55 86 44
-1.103008 0.092420 3.976322 55 86 42
-1.092072 0.094485 3.975585 54 88 40
-1.080816 0.094607 3.975316 53 87 36
-1.072497 0.096082 3.976003 52 85 36
-1.062454 0.095360 3.973148 51 81 37
-1.034722 0.096375 3.973416 6 12 5
-1.025233 0.092822 3.970657 7 11 7
-1.192192 0.087245 3.977271 6 8 5
-1.174527 0.084661 3.973964 5 7 5
-1.162867 0.086197 3.973297 16 28 17
-1.149701 0.083228 3.972292 19 36 20
-1.141356 0.084771 3.971663 33 55 31
-1.132155 0.088347 3.973116 45 73 41
-1.122462 0.081281 3.978892 46 69 39
-1.114567 0.087599 3.976662 53 83 44
-1.103986 0.084200 3.976857 51 80 43
-1.093036 0.085173 3.974835 49 81 40
-1.083239 0.085151 3.971552 52 84 41
-1.073555 0.083613 3.975152 53 88 38
-1.061591 0.084146 3.972168 55 87 38
-1.160430 0.077590 3.973634 4 6 4
-1.152967 0.076376 3.972683 6 10 6
-1.143137 0.073203 3.971620 6 12 6
-1.135071 0.074093 3.970115 17 28 17
-1.125807 0.073383 3.979530 3 6 4
-1.111577 0.075271 3.976895 21 32 20
-1.101744 0.074126 3.975010 26 40 23
-1.093420 0.075025 3.975764 37 54 32
-1.083984 0.074981 3.973319 41 63 35
-1.074919 0.076480 3.971852 49 75 38
-1.064151 0.079405 3.971042 54 85 37
-1.098363 0.066612 3.979667 19 29 17
-1.090906 0.068153 3.972691 39 61 35
-1.086964 0.064057 3.975194 13 20 13
-1.042416 0.062959 3.976106 23 37 16
-1.033136 0.065663 3.974149 6 11 5
-0.843013 0.067238 3.972840 43 84 46
-1.076316 0.056283 3.973787 9 12 9
-1.065247 0.051472 3.970642 6 10 6
-1.051621 0.059518 3.978507 46 68 35
-1.041865 0.055796 3.972733 55 84 39
-1.017216 0.055447 3.972653 12 22 12
-0.840629 0.057863 3.978023 33 64 37
-1.082955 0.048879 3.977909 2 4 2
-1.070943 0.050630 3.970907 2 3 2
-0.841958 0.049829 3.974841 6 13 6
-1.018670 0.038275 3.972691 43 79 38
-0.971558 0.033144 3.974900 5 13 6
-0.983256 0.028222 3.975900 22 45 23
-1.015617 0.017159 3.971040 61 94 41
-0.993268 0.016037 3.977142 45 90 43
-0.986991 0.015389 3.971106 47 93 45
-1.019801 0.006099 3.973460 56 89 41
-1.014095 0.008218 3.970047 57 90 41
-0.989830 0.007076 3.974356 48 94 45
-1.022647 -0.008304 3.973643 32 64 31
-1.022593 -0.017162 3.973842 16 29 16
-1.031732 -0.020894 3.975180 4 10 6
-1.020646 -0.025737 3.975705 3 5 3
-1.457345 0.373808 3.989671 7 11 7
-0.942690 0.342758 3.989198 12 24 12
-0.906920 0.342525 3.983309 15 28 15
-0.933732 0.335229 3.986307 23 43 21
-0.925955 0.333136 3.983105 5 9 4
-0.916790 0.337394 3.981021 2 3 2
-0.899602 0.339195 3.986154 36 68 36
-0.893663 0.334482 3.983242 43 79 42
-0.974964 0.325317 3.987061 3 4 3
-0.951304 0.325749 3.987826 13 26 12
-0.943701 0.323999 3.984836 24 35 20
-0.933259 0.325147 3.985348 31 54 27
-0.925291 0.326892 3.982145 32 57 29
-0.895441 0.323908 3.982238 46 92 45
-0.820160 0.321171 3.986802 41 65 31
-0.814244 0.326259 3.985159 14 24 12
-1.001752 0.320601 3.989362 5 9 5
-0.996712 0.314656 3.986194 8 16 7
-0.983117 0.316189 3.986413 12 19 10
-0.973934 0.315969 3.983809 7 12 6
-0.966168 0.320195 3.980395 2 4 1
-0.942696 0.315466 3.986710 46 78 38
-0.931927 0.315027 3.980219 51 73 43
-0.909865 0.313022 3.987036 42 92 42
-0.815181 0.316877 3.982320 47 79 35
-1.001334 0.308263 3.989393 34 51 28
-0.993977 0.306958 3.985292 28 45 24
-0.982690 0.305471 3.985982 44 67 37
-0.973638 0.306350 3.983579 38 60 32
-0.967053 0.303534 3.981491 48 71 41
-0.942135 0.305564 3.987777 53 91 42
-0.934940 0.305708 3.982163 51 89 42
-0.901939 0.306882 3.986134 45 89 44
-0.893789 0.302323 3.983078 44 86 46
-0.816706 0.305456 3.981122 50 90 35
-1.010080 0.298690 3.988130 3 7 2
-1.000915 0.294852 3.988944 52 80 40
-0.991237 0.299891 3.984684 46 73 36
-0.982242 0.296091 3.986142 54 86 43
-0.972388 0.294978 3.984230 54 88 41
-0.965650 0.296650 3.980738 55 86 44
-0.940601 0.294829 3.986464 47 90 39
-0.934140 0.295531 3.982655 50 90 39
-0.894558 0.297505 3.989454 38 69 40
-0.886689 0.294105 3.983778 34 64 38
-0.854269 0.295140 3.983005 45 78 34
-0.806598 0.291057 3.989539 47 86 31
-1.077294 0.281835 3.983358 3 6 4
-1.010367 0.282330 3.984302 23 44 24
-1.004369 0.286201 3.985397 29 47 21
-0.992286 0.285679 3.986387 52 86 40
-0.981211 0.283944 3.985765 54 89 46
-0.972002 0.285076 3.981896 55 92 44
-0.966021 0.284211 3.980687 53 88 38
-0.943443 0.284894 3.988791 46 81 38
-0.934405 0.285968 3.984015 49 85 38
-0.927532 0.283368 3.980294 52 82 40
-0.880775 0.289612 3.985333 12 26 14
-0.848419 0.288667 3.981289 42 64 35
-0.799479 0.287260 3.985801 47 86 34
-0.794747 0.284726 3.983306 49 84 36
-1.468965 0.271444 3.983082 10 19 10
-1.462249 0.273714 3.984156 4 9 3
-1.455550 0.276198 3.985394 1 3 1
-1.441419 0.271126 3.988734 9 15 7
-1.064373 0.273939 3.984704 8 17 10
-1.017524 0.277599 3.989312 42 76 40
-1.000494 0.278459 3.987147 51 82 37
-0.994382 0.273499 3.985821 49 83 35
-0.984058 0.276054 3.983009 53 87 41
-0.948008 0.271397 3.988714 26 40 21
-0.941497 0.275650 3.986049 37 67 35
-0.933987 0.276000 3.981790 44 76 40
-0.791802 0.276141 3.985742 38 57 30
-0.785233 0.274046 3.983892 36 50 30
-1.482333 0.265802 3.980093 25 42 24
-1.471957 0.265148 3.982873 27 46 24
-1.461545 0.263919 3.985213 30 49 26
-1.451461 0.267236 3.986754 18 30 15
-1.349734 0.261692 3.980919 5 11 6
-1.095837 0.265631 3.984453 21 40 22
-1.083968 0.261600 3.981580 5 14 6
-1.073478 0.260867 3.988630 38 70 36
-1.060378 0.269179 3.985036 21 41 25
-1.052735 0.263460 3.980000 25 50 30
-1.014205 0.266934 3.985554 47 86 44
-1.002604 0.265863 3.987321 48 72 36
-0.990037 0.267813 3.985119 49 81 40
-0.983005 0.265670 3.983999 50 82 42
-0.975014 0.261386 3.981825 49 77 44
-0.942150 0.266040 3.984864 15 24 12
-0.933338 0.266049 3.982536 19 38 21
-0.787521 0.267950 3.982753 7 9 6
-1.481645 0.256026 3.981170 43 77 38
-1.474982 0.259277 3.982992 40 72 36
-1.464171 0.252481 3.985362 46 81 38
-1.454123 0.256532 3.987460 43 75 36
-1.447459 0.259700 3.989215 40 70 36
-1.361391 0.253471 3.980513 26 44 29
-1.354011 0.252567 3.982184 29 49 29
-1.342777 0.259871 3.981832 7 14 7
-1.332604 0.256556 3.982716 11 20 10
-1.323257 0.251399 3.982082 14 25 13
-1.100071 0.253952 3.983637 49 90 45
-1.091691 0.256924 3.980615 47 89 42
-1.080385 0.260182 3.988773 34 63 31
-1.062732 0.258531 3.985851 41 78 41
-1.051926 0.255755 3.982735 45 85 44
-1.010871 0.256639 3.982086 48 91 43
-1.004721 0.252105 3.986982 27 40 23
-0.992432 0.255896 3.984460 32 49 27
-0.982163 0.256841 3.983766 31 51 30
-0.972961 0.255811 3.984193 25 40 23
-0.966588 0.254577 3.981735 23 38 21
-0.956414 0.258991 3.987708 3 6 5
-0.937340 0.259171 3.980141 5 12 4
-1.484281 0.244357 3.981151 46 83 38
-1.474227 0.248485 3.983307 46 83 37
-1.463437 0.242166 3.986053 46 84 40
-1.453366 0.246013 3.987993 45 83 39
-1.446674 0.248861 3.989501 45 83 40
-1.343518 0.249943 3.983643 34 58 32
-1.333453 0.246369 3.984317 36 64 34
-1.327421 0.242472 3.983520 38 67 35
-1.313765 0.246553 3.981704 18 32 17
-1.303946 0.242431 3.981926 24 39 23
-1.111269 0.248021 3.983521 48 89 46
-1.106596 0.242193 3.983061 47 89 43
-1.079314 0.249974 3.989603 46 87 41
-1.072223 0.249071 3.988250 45 88 41
-1.065076 0.247722 3.986559 44 89 42
-1.021661 0.247222 3.987872 44 88 43
-1.012791 0.243605 3.985195 28 54 26
-0.999645 0.245370 3.983477 19 28 16
-0.989668 0.249393 3.987212 6 11 5
-0.980509 0.244740 3.980788 7 11 6
-0.963938 0.249424 3.980587 7 14 7
-1.483570 0.234142 3.981923 41 74 39
-1.473511 0.238336 3.984127 45 82 40
-1.459339 0.233103 3.987382 43 75 42
-1.452618 0.235635 3.988648 44 79 41
-1.321025 0.239382 3.983386 40 70 36
-1.311399 0.234809 3.983238 41 72 37
-1.294183 0.238180 3.982042 31 51 30
-1.285076 0.232437 3.980928 36 63 33
-1.018342 0.235864 3.983623 42 82 43
-0.988765 0.239841 3.983217 1 3 1
-1.493029 0.221375 3.981760 6 13 7
-1.482890 0.224427 3.983090 16 32 18
-1.472691 0.226493 3.983673 31 54 31
-1.462322 0.226536 3.986999 28 49 28
-1.451819 0.224486 3.988735 27 48 26
-1.321313 0.221674 3.980028 41 79 36
-1.301906 0.229930 3.982843 42 75 39
-1.292467 0.224915 3.982334 42 78 38
-1.278936 0.228752 3.980307 40 70 34
-1.039580 0.229224 3.987098 43 78 43
-1.032627 0.224382 3.983489 39 71 39
-1.022106 0.223630 3.983012 31 53 30
-1.499738 0.218446 3.980191 3 6 3
-1.478797 0.215245 3.984348 3 4 3
-1.472062 0.217760 3.985600 6 11 7
-1.465348 0.220560 3.987069 12 22 12
-1.421953 0.212264 3.983581 38 84 31
-1.403070 0.215125 3.986127 36 82 30
-1.363980 0.213205 3.984393 31 74 29
-1.343550 0.216274 3.987185 35 58 35
-1.333880 0.211748 3.987089 31 51 32
-1.326365 0.210926 3.984418 34 63 33
-1.310538 0.216860 3.983030 40 78 37
-1.302032 0.212707 3.984304 39 74 38
-1.294890 0.211050 3.980949 43 80 39
-1.284698 0.216318 3.983286 44 80 38
-1.273360 0.215379 3.981728 43 83 37
-1.263227 0.211922 3.982503 45 84 39
-1.102094 0.217816 3.988685 26 47 26
-1.032852 0.215792 3.985689 13 25 14
-1.436027 0.204705 3.980719 47 95 36
-1.424434 0.205698 3.984610 44 93 35
-1.412855 0.210303 3.989129 44 92 37
-1.361151 0.206785 3.986363 29 64 25
-1.351584 0.207433 3.987542 10 17 10
-1.344723 0.205324 3.988224 8 14 9
-1.334449 0.202124 3.989218 5 9 5
-1.319504 0.208833 3.985113 33 61 31
-1.313401 0.205235 3.988980 23 40 24
-1.306686 0.202814 3.989407 19 32 20
-1.293261 0.206352 3.987110 38 65 36
-1.281952 0.205325 3.985480 39 69 35
-1.273574 0.206480 3.984432 43 79 39
-1.267256 0.203165 3.984123 42 77 37
-1.253430 0.207693 3.982646 43 83 36
-1.243826 0.203013 3.982419 41 83 36
-1.145376 0.201753 3.986230 38 71 40
-1.137653 0.202970 3.982224 40 76 44
-1.127247 0.204794 3.980067 40 79 44
-1.040085 0.208701 3.988968 2 5 2
-1.025898 0.209893 3.981286 7 14 7
-1.460022 0.192414 3.981049 46 97 38
-1.429500 0.199672 3.983389 46 98 37
-1.421909 0.197965 3.985713 44 97 36
-1.414458 0.196295 3.988169 44 97 36
-1.354309 0.191536 3.980961 41 77 39
-1.330142 0.197940 3.983468 6 10 6
-1.324315 0.198613 3.989959 3 7 4
-1.300120 0.200052 3.989551 17 27 17
-1.293560 0.197276 3.989688 11 20 11
-1.286929 0.194658 3.989951 8 15 8
-1.274253 0.196513 3.986274 26 45 24
-1.262536 0.196415 3.985403 29 52 24
-1.251563 0.194617 3.983137 34 63 30
-1.234370 0.197983 3.981908 41 77 36
-1.225418 0.191770 3.980427 37 68 33
-1.177474 0.199302 3.989594 12 26 14
-1.163255 0.195953 3.986369 19 40 20
-1.150469 0.196629 3.985005 17 33 16
-1.134457 0.196502 3.980844 13 25 12
-1.461598 0.185629 3.981267 46 95 39
-1.452016 0.183391 3.981768 45 94 38
-1.447275 0.182420 3.986636 44 93 37
-1.373128 0.187035 3.984295 14 26 14
-1.365662 0.188642 3.986352 16 31 15
-1.343736 0.190270 3.981218 41 78 39
-1.254430 0.188502 3.986938 9 18 8
-1.243649 0.186251 3.984304 17 30 15
-1.232407 0.185068 3.982542 18 33 17
-1.218849 0.189013 3.980577 33 61 30
-1.212221 0.186393 3.980837 28 49 25
-1.202083 0.182919 3.981604 15 26 13
-1.179895 0.187079 3.980691 49 82 41
-1.172778 0.187568 3.985024 16 28 16
-1.161663 0.186440 3.987703 7 13 8
-1.150632 0.185678 3.983371 39 78 36
-1.136366 0.185978 3.980734 38 73 32
-1.125102 0.187046 3.980734 40 73 34
-1.343176 0.173059 3.986098 2 3 4
-1.333480 0.177278 3.982608 40 60 31
-1.322750 0.179668 3.981465 59 89 45
-1.311496 0.180010 3.981740 59 88 45
-1.222711 0.180552 3.982457 8 17 8
-1.215326 0.179682 3.984151 4 9 4
-1.193778 0.178397 3.985428 20 33 19
-1.184271 0.179283 3.984641 2 5 2
-1.168808 0.175391 3.987669 38 83 29
-1.154642 0.175698 3.985096 39 83 30
-1.138953 0.175626 3.981214 39 83 30
-1.130900 0.176352 3.981469 3 4 2
-1.322523 0.167317 3.984153 2 4 4
-1.312252 0.164060 3.982884 1 2 4
-1.301663 0.162721 3.983088 1 2 3
-1.284443 0.162537 3.980126 57 91 42
-1.200234 0.167613 3.984331 36 61 35
-1.185160 0.160723 3.983150 6 11 8
-1.170478 0.161463 3.983688 19 44 16
-1.143783 0.169516 3.984245 39 83 30
-1.363980 0.152192 3.982847 55 86 48
-1.301580 0.159723 3.981055 55 88 41
-1.293157 0.159916 3.981294 56 89 42
-1.265526 0.152270 3.980452 55 84 43
-1.223610 0.155653 3.988821 25 46 24
-1.214332 0.154769 3.985522 28 53 27
-1.205310 0.154026 3.981980 35 62 33
-1.194958 0.157225 3.982831 20 35 20
-1.141577 0.154525 3.989178 35 77 30
-1.132968 0.156119 3.986878 36 77 30
-1.124170 0.157673 3.984418 35 79 30
-1.109723 0.154235 3.981076 35 77 30
-1.355772 0.150596 3.984125 56 87 49
-1.341808 0.145844 3.981025 37 54 33
-1.330831 0.144057 3.982530 38 57 35
-1.321906 0.148746 3.980157 41 61 38
-1.313487 0.148999 3.980361 44 65 38
-1.302304 0.148953 3.980855 45 70 40
-1.291125 0.148853 3.981383 50 78 39
-1.274270 0.149408 3.981762 55 84 42
-1.230911 0.146065 3.987875 43 78 36
-1.220605 0.144621 3.985572 43 83 35
-1.209512 0.147274 3.981993 43 82 38
-1.130741 0.144657 3.987775 37 70 37
-1.114434 0.148083 3.983993 36 73 33
-1.339601 0.136004 3.980419 4 7 4
-1.214512 0.137527 3.983077 28 58 23
-1.160316 0.134051 3.982583 58 90 36
-1.151795 0.134946 3.982413 56 87 33
-1.143198 0.136382 3.981929 54 83 36
-1.137389 0.137897 3.981282 50 75 36
-1.127142 0.136380 3.983455 25 45 27
-1.112813 0.140309 3.981398 35 63 35
-1.382375 0.127775 3.983458 5 8 5
-1.229846 0.122510 3.988890 42 79 38
-1.222970 0.127211 3.984101 46 81 38
-1.209989 0.124576 3.981526 41 81 35
-1.198617 0.122180 3.980277 57 86 45
-1.138939 0.122152 3.983993 56 89 39
-1.132522 0.128145 3.980738 55 88 38
-1.123925 0.129573 3.980258 52 85 35
-1.328768 0.117197 3.982832 2 3 1
-1.320896 0.117109 3.982488 2 5 2
-1.255120 0.112014 3.982146 10 15 9
-1.222614 0.113296 3.985239 34 59 31
-1.214085 0.115212 3.982671 34 53 30
-1.204041 0.119590 3.980765 52 79 43
-1.180136 0.114713 3.981520 57 90 48
-1.162806 0.111035 3.989535 56 90 44
-1.156922 0.113241 3.988483 55 90 41
-1.128453 0.112669 3.983540 55 89 38
-1.122697 0.113848 3.983086 57 89 38
-1.103101 0.114996 3.985322 29 46 20
-1.091554 0.114152 3.986556 22 34 16
-1.084065 0.113056 3.984741 42 65 30
-1.073635 0.114352 3.982061 23 35 18
-1.060722 0.113992 3.984115 11 17 9
-1.052061 0.113180 3.984730 6 10 4
-1.242242 0.106658 3.987086 15 27 15
-1.233346 0.106006 3.983414 11 20 11
-1.221952 0.108507 3.980131 17 31 18
-1.193346 0.104914 3.984768 43 67 38
-1.185403 0.110606 3.982934 54 85 46
-1.172660 0.103430 3.982916 48 79 44
-1.164606 0.108085 3.981710 53 86 44
-1.152110 0.103254 3.980266 54 83 44
-1.143891 0.101947 3.989208 54 87 40
-1.134554 0.108956 3.985472 54 89 40
-1.118050 0.102692 3.983381 58 89 41
-1.112265 0.106160 3.985556 54 87 35
-1.105198 0.103051 3.985088 51 87 34
-1.094003 0.106468 3.984071 49 78 35
-1.083087 0.108010 3.983319 28 43 21
-1.060508 0.107572 3.989963 13 22 11
-1.038192 0.109974 3.984490 1 2 3
-1.182940 0.092821 3.987208 32 50 31
-1.177611 0.096240 3.986212 42 66 40
-1.162525 0.093825 3.983842 43 65 39
-1.141816 0.093182 3.984742 50 77 41
-1.133118 0.094706 3.987461 53 81 43
-1.121631 0.094857 3.984621 56 85 44
-1.113037 0.094239 3.982110 54 85 44
-1.104594 0.094133 3.982294 53 86 37
-1.092481 0.096052 3.984031 54 88 37
-1.083592 0.096093 3.985322 51 86 34
-1.152445 0.084610 3.984537 37 52 33
-1.147356 0.090497 3.982030 46 70 39
-1.134313 0.084817 3.984893 40 60 35
-1.125106 0.087750 3.985437 51 75 43
-1.110972 0.085358 3.985850 47 74 35
-1.101581 0.081738 3.987503 52 84 34
-1.092722 0.085630 3.982163 52 87 36
-1.083306 0.085905 3.983218 53 88 37
-1.142036 0.076973 3.985465 13 23 13
-1.124036 0.074214 3.985471 25 38 22
-1.111810 0.073128 3.982930 25 39 21
-1.101526 0.076246 3.984920 50 76 38
-1.090064 0.079350 3.989423 51 85 34
-1.081850 0.078791 3.986160 49 87 34
-1.120014 0.062725 3.983688 16 27 15
-1.115330 0.067962 3.983076 23 35 21
-1.103035 0.066966 3.989148 39 57 33
-1.096626 0.069067 3.984082 38 53 31
-1.084927 0.067583 3.989416 49 79 36
-1.058462 0.061969 3.985601 19 27 13
-1.052639 0.063026 3.982836 13 22 10
-1.047272 0.065286 3.982569 2 7 2
-1.111465 0.052726 3.987350 2 3 4
-1.104877 0.059969 3.983332 8 12 7
-1.025837 0.052108 3.981748 8 16 8
-0.844767 0.055643 3.985821 29 55 30
-1.094846 0.047881 3.984460 4 7 3
-1.034406 0.047366 3.986684 17 35 17
-1.026666 0.041786 3.980686 33 59 31
-1.035510 0.034768 3.987823 40 75 35
-0.982027 0.032389 3.984353 2 4 2
-1.001025 0.023634 3.988353 25 52 26
-0.992123 0.025911 3.982147 23 50 25
-1.008227 0.014181 3.989653 45 88 40
-0.999939 0.017085 3.982706 44 88 41
-1.032245 0.002103 3.989777 60 94 41
-1.023385 0.003763 3.983984 59 94 43
-1.004725 0.005168 3.986923 47 91 40
-0.997774 0.003828 3.981708 46 92 40
-1.030982 -0.004014 3.987071 58 91 41
-1.024671 -0.004801 3.982218 54 89 41
-1.032117 -0.014093 3.986234 47 73 40
-1.023258 -0.012526 3.980497 46 73 39
-1.040214 -0.021493 3.987140 12 29 14
-1.033270 -0.023960 3.985277 16 27 16
-1.026969 -0.024748 3.980429 7 13 6
-1.038266 -0.029698 3.987680 3 8 4
-1.458904 0.371169 3.994344 38 52 31
-1.451078 0.372494 3.996695 37 52 31
-1.444715 0.375275 3.995232 16 24 14
-1.460390 0.368623 3.999072 44 61 32
-0.965278 0.353337 3.998179 2 4 3
-0.953988 0.344187 3.996193 5 12 6
-0.944879 0.341637 3.995319 16 32 16
-0.908700 0.341564 3.990672 35 63 33
-0.896326 0.342391 3.998142 46 85 44
-0.967900 0.333367 3.997593 9 17 7
-0.963578 0.333142 3.998310 17 25 16
-0.955771 0.335454 3.995082 7 13 6
-0.942516 0.334636 3.993616 27 49 25
-0.937281 0.337833 3.990282 33 60 31
-0.894935 0.334195 3.995562 47 91 46
-0.821015 0.331856 3.995977 10 19 9
-1.021435 0.327468 3.999932 6 9 5
-1.016420 0.323882 3.997859 12 15 11
-1.004951 0.325762 3.996535 6 10 6
-0.994787 0.323835 3.994389 6 9 5
-0.985167 0.327797 3.992311 2 5 2
-0.960534 0.326970 3.996967 30 53 24
-0.954031 0.325547 3.993688 36 59 30
-0.941750 0.325563 3.995888 46 90 39
-0.900537 0.330085 3.999424 45 92 42
-0.893802 0.325775 3.992743 45 91 45
-0.822279 0.326109 3.992277 29 46 21
-1.021048 0.313834 3.999367 39 56 32
-1.010361 0.318423 3.997019 20 28 16
-1.002237 0.314884 3.996018 31 48 25
-0.992174 0.314802 3.992888 27 40 22
-0.987661 0.312101 3.990927 29 44 25
-0.960455 0.318764 3.999172 57 88 43
-0.953234 0.316314 3.994654 52 87 42
-0.937285 0.319607 3.991603 47 93 41
-0.921455 0.313869 3.998327 47 89 45
-1.013512 0.306960 3.995572 50 68 40
-1.002304 0.307189 3.997949 55 87 44
-0.991569 0.306020 3.993682 51 80 41
-0.983705 0.308459 3.990717 44 71 40
-0.963390 0.304988 3.998861 55 92 41
-0.953267 0.306652 3.994835 53 93 42
-0.947533 0.306402 3.992049 52 93 43
-0.913625 0.310432 3.992611 43 90 43
-0.906774 0.306703 3.995013 44 85 45
-0.861195 0.301090 3.990267 45 80 33
-1.110744 0.290914 3.997222 4 9 3
-1.031324 0.291200 3.999564 27 51 26
-1.022411 0.298697 3.997183 31 49 25
-1.014405 0.295811 3.995826 42 68 33
-1.002909 0.296265 3.997135 54 88 39
-0.992350 0.295244 3.993657 55 89 42
-0.985515 0.294071 3.990947 54 87 39
-0.961840 0.294759 3.997049 54 86 42
-0.951365 0.296404 3.994470 49 88 39
-0.946493 0.293410 3.990666 48 87 39
-0.902701 0.300679 3.994878 40 70 39
-0.892411 0.293368 3.994852 13 24 13
-0.861425 0.298049 3.992810 46 75 37
-0.814741 0.294527 3.998813 48 85 35
-1.102291 0.283750 3.998173 22 41 21
-1.096635 0.283862 3.992125 11 18 11
-1.082778 0.287246 3.992433 5 9 5
-1.077160 0.282460 3.993055 16 33 17
-1.023340 0.285285 3.996858 47 76 36
-1.010595 0.289571 3.993095 54 83 38
-1.003541 0.283057 3.996744 53 87 38
-0.992394 0.285976 3.991503 54 89 40
-0.961415 0.284293 3.996895 49 73 43
-0.954322 0.285648 3.995010 44 77 38
-0.882308 0.288870 3.992945 3 5 2
-0.811651 0.289744 3.996614 47 84 36
-0.802016 0.284668 3.994616 46 77 36
-0.795785 0.282487 3.992640 51 80 41
-1.431476 0.276431 3.991793 4 6 2
-1.420734 0.270949 3.995156 17 27 16
-1.414004 0.272967 3.996035 11 18 9
-1.403821 0.274740 3.996397 4 8 4
-1.393740 0.277916 3.997830 1 4 1
-1.379444 0.271213 3.999937 8 14 8
-1.137995 0.278076 3.999142 1 3 1
-1.130971 0.277385 3.997953 2 4 2
-1.123941 0.276687 3.996754 2 3 2
-1.113234 0.274183 3.993848 2 5 3
-1.102618 0.272619 3.991658 3 8 5
-1.074980 0.274855 3.990705 11 22 10
-1.031604 0.278029 3.998193 44 87 44
-1.024817 0.272312 3.995716 48 81 41
-1.012715 0.275671 3.992663 49 78 36
-1.001850 0.274635 3.995670 51 84 39
-0.996004 0.277322 3.992250 53 87 44
-0.964918 0.274249 3.998016 18 28 17
-0.952474 0.276433 3.993190 31 53 29
-0.945198 0.270803 3.991395 16 32 17
-0.794974 0.275250 3.994444 16 23 14
-1.440801 0.262927 3.991015 35 63 34
-1.434197 0.266894 3.993381 30 50 29
-1.423707 0.264700 3.994990 33 55 31
-1.413293 0.263675 3.997488 40 68 36
-1.403151 0.266126 3.998368 28 51 28
-1.392962 0.267910 3.998739 18 34 18
-1.386171 0.269135 3.999013 12 23 12
-1.123092 0.268212 3.998878 21 36 21
-1.112549 0.267309 3.997195 23 42 23
-1.102033 0.266708 3.995741 26 48 24
-1.094933 0.265536 3.994184 29 53 25
-1.087592 0.262226 3.990996 32 59 28
-1.031887 0.264872 3.996853 46 92 45
-1.019893 0.267030 3.995076 46 68 36
-1.011716 0.265749 3.995487 42 64 37
-1.002268 0.263511 3.995890 33 49 30
-0.994430 0.267208 3.993701 42 69 34
-0.986675 0.263883 3.991645 41 64 35
-0.964621 0.265423 3.994475 5 8 4
-0.952363 0.268868 3.994631 8 15 8
-0.941028 0.264873 3.992022 3 6 4
-1.440007 0.252042 3.991265 46 83 42
-1.433335 0.255111 3.992943 47 81 44
-1.426646 0.257876 3.994389 46 77 43
-1.412417 0.252003 3.997146 47 87 43
-1.402342 0.255553 3.998859 45 81 43
-1.111567 0.257667 3.998443 46 82 40
-1.100837 0.255182 3.995558 45 83 40
-1.093646 0.253246 3.993421 45 85 41
-1.086621 0.252871 3.992472 46 86 40
-1.032180 0.250730 3.994789 45 88 45
-1.024768 0.256919 3.993869 37 64 35
-1.012614 0.256854 3.993763 24 37 20
-1.003994 0.255546 3.993368 17 25 15
-0.994500 0.259668 3.995020 17 27 16
-0.982331 0.257817 3.992700 11 19 10
-1.439245 0.241659 3.991912 47 85 41
-1.432557 0.244566 3.993464 47 86 42
-1.422509 0.248635 3.995572 47 86 42
-1.411637 0.241717 3.997875 47 87 45
-1.401542 0.245108 3.999465 47 87 45
-1.114033 0.247646 3.999749 46 90 39
-1.103331 0.245489 3.997116 46 90 40
-1.092535 0.242559 3.993895 45 90 44
-1.050001 0.247310 3.998956 43 83 44
-1.023062 0.246691 3.994561 11 16 10
-1.015314 0.244949 3.992790 5 7 4
-1.001366 0.249270 3.991106 5 9 5
-1.442197 0.234809 3.991311 43 77 40
-1.431777 0.234008 3.993991 44 78 43
-1.421729 0.238209 3.996196 46 83 44
-1.404104 0.233461 3.999502 46 83 47
-1.053532 0.237647 3.997707 40 75 40
-1.044729 0.236990 3.995496 36 66 37
-1.445147 0.227828 3.990613 36 63 34
-1.434392 0.222649 3.994256 20 36 22
-1.424275 0.226003 3.995813 31 55 31
-1.412779 0.226312 3.997809 33 59 34
-1.403265 0.222425 3.999692 29 49 30
-1.396370 0.222564 3.999142 34 59 35
-1.104840 0.226082 3.999927 40 75 42
-1.094142 0.224185 3.997498 36 70 40
-1.043249 0.225642 3.993054 24 45 25
-1.451242 0.216757 3.991428 4 7 3
-1.444504 0.219183 3.992613 9 16 10
-1.430223 0.212980 3.995162 3 6 3
-1.423518 0.215890 3.996709 5 11 5
-1.416804 0.218627 3.998127 12 22 12
-1.391124 0.212563 3.993725 35 81 28
-1.304889 0.214347 3.998361 2 5 3
-1.293524 0.211703 3.997467 4 11 5
-1.122452 0.214283 3.993242 13 28 15
-1.111097 0.216313 3.991762 19 37 21
-1.103566 0.213755 3.999202 18 30 19
-1.092837 0.211696 3.996655 12 23 15
-1.413011 0.206534 3.995111 23 49 19
-1.405475 0.208785 3.996227 43 92 36
-1.351420 0.203254 3.990314 40 88 34
-1.342664 0.201889 3.995875 30 62 27
-1.324457 0.204343 3.995008 36 69 32
-1.315220 0.205855 3.996569 26 50 24
-1.305034 0.207131 3.997300 20 39 20
-1.295460 0.204937 3.997989 26 51 27
-1.254115 0.202666 3.999365 23 47 25
-1.232567 0.204969 3.999951 12 23 11
-1.213064 0.204041 3.997195 11 21 10
-1.192015 0.202733 3.993123 7 15 8
-1.150213 0.201187 3.992219 34 62 34
-1.469240 0.195082 3.998489 46 97 38
-1.458389 0.192518 3.997841 45 97 38
-1.376293 0.194681 3.991798 43 92 36
-1.365779 0.195841 3.992166 43 92 36
-1.354452 0.196929 3.993712 27 53 24
-1.343278 0.194303 3.995611 42 91 35
-1.332469 0.195400 3.995756 41 88 34
-1.326441 0.197603 3.995577 42 88 35
-1.313161 0.194575 3.997539 41 86 34
-1.302461 0.199342 3.998415 40 77 35
-1.280079 0.192540 3.990625 4 9 4
-1.273415 0.195511 3.994555 17 37 16
-1.264500 0.194150 3.997560 38 79 34
-1.251890 0.194821 3.996216 39 79 36
-1.241203 0.195989 3.996582 36 69 33
-1.228509 0.196650 3.995195 36 65 33
-1.216359 0.193809 3.993712 38 73 34
-1.203904 0.194543 3.992569 31 61 27
-1.191037 0.195178 3.991081 29 57 28
-1.180159 0.192667 3.990761 34 66 33
-1.155920 0.200426 3.997620 28 45 26
-1.448039 0.190086 3.997658 46 97 38
-1.440930 0.184764 3.995231 45 94 37
-1.358847 0.187074 3.993944 42 91 35
-1.319865 0.188917 3.997710 40 87 33
-1.311613 0.187049 3.999558 41 88 34
-1.278549 0.186583 3.999000 41 87 34
-1.269018 0.184392 3.999762 42 87 33
-1.256560 0.185092 3.998549 43 87 34
-1.244785 0.185973 3.997955 45 88 35
-1.230145 0.186129 3.994855 45 87 37
-1.216866 0.186640 3.992971 42 86 35
-1.205750 0.184056 3.992409 41 86 33
-1.193979 0.184961 3.991881 40 83 33
-1.180214 0.187419 3.994226 34 61 31
-1.172310 0.187264 3.992509 37 76 33
-1.437930 0.180512 3.996503 46 92 35
-1.245222 0.178797 3.997152 46 92 37
-1.233980 0.176169 3.996446 48 94 40
-1.221229 0.176805 3.995024 46 91 39
-1.209767 0.174125 3.994155 43 87 36
-1.197025 0.175675 3.994181 23 47 20
-1.183843 0.175314 3.991023 38 84 30
-1.193836 0.161664 3.997405 4 9 4
-1.170792 0.168699 3.992826 37 84 30
-1.155180 0.165088 3.993008 37 82 28
-1.244047 0.153904 3.995673 22 41 20
-1.232292 0.156203 3.992710 19 36 17
-1.215798 0.160415 3.992317 4 10 6
-1.202976 0.151591 3.990617 3 8 4
-1.163840 0.159719 3.990172 34 81 28
-1.153987 0.157450 3.990784 34 80 28
-1.261598 0.141165 3.999171 42 80 35
-1.254829 0.146370 3.996499 38 71 34
-1.241335 0.147568 3.990076 42 76 36
-1.223026 0.144533 3.995860 26 69 28
-1.251333 0.135225 3.998839 41 81 33
-1.243133 0.139483 3.992428 42 81 36
-1.231380 0.132720 3.993570 42 81 36
-1.231305 0.123622 3.997736 41 80 36
-1.233241 0.115475 3.994818 39 75 36
-1.097353 0.111237 3.992578 36 53 27
-1.262195 0.104610 3.994405 13 26 12
-1.251976 0.107929 3.995084 25 47 24
-1.239711 0.110123 3.997758 36 67 34
-1.168797 0.108003 3.991069 57 90 45
-1.121209 0.105253 3.997703 50 77 36
-1.114406 0.108570 3.995001 44 68 30
-1.100865 0.106900 3.996108 41 62 29
-1.091787 0.110299 3.996786 18 29 11
-1.081133 0.109306 3.994245 16 27 12
-1.070877 0.106021 3.996476 8 14 6
-1.066808 0.107060 3.994526 7 11 4
-1.052481 0.107329 3.993689 2 4 2
-1.173537 0.097410 3.992796 43 66 37
-1.161364 0.096581 3.991639 47 75 41
-1.152677 0.098918 3.990624 51 84 40
-1.121958 0.097521 3.996692 52 85 34
-1.103363 0.093927 3.993888 51 86 34
-1.094596 0.094968 3.991558 53 85 36
-1.181880 0.089085 3.995198 24 37 21
-1.173864 0.082104 3.993194 6 10 6
-1.159666 0.084087 3.992616 22 38 20
-1.153653 0.087327 3.990956 32 50 28
-1.147846 0.089030 3.990194 42 64 37
-1.120257 0.082926 3.995807 49 85 33
-1.113754 0.087646 3.995908 53 86 35
-1.099749 0.084872 3.994655 49 87 33
-1.095086 0.085703 3.991661 51 86 34
-1.182786 0.077828 3.995342 1 3 3
-1.165782 0.080042 3.994745 14 25 14
-1.149318 0.073833 3.992644 11 18 10
-1.143088 0.078664 3.990052 21 33 19
-1.131416 0.072737 3.997850 44 67 35
-1.124254 0.075634 3.995468 45 73 34
-1.112974 0.075898 3.991312 45 74 33
-1.106228 0.074823 3.998332 48 84 36
-1.149249 0.067683 3.997478 9 15 9
-1.139332 0.068259 3.995879 17 29 14
-1.131679 0.068776 3.992635 18 29 16
-1.113405 0.064926 3.995993 39 62 33
-1.100770 0.067844 3.996521 47 80 36
-1.092818 0.067671 3.992996 48 79 37
-0.849267 0.053570 3.993289 27 51 27
-0.845629 0.060513 3.993546 43 80 40
-1.043014 0.045826 3.999542 5 11 5
-0.853332 0.046797 3.992649 5 10 4
-1.043366 0.039375 3.994752 28 53 27
-1.044256 0.028508 3.994226 45 84 39
-1.003312 0.025799 3.995885 11 22 12
-0.991248 0.030443 3.990170 2 7 3
-1.014382 0.014702 3.995841 41 81 38
-1.020175 0.003822 3.998825 44 90 39
-1.011734 0.006563 3.992074 46 91 39
-1.048993 -0.004089 3.996678 55 91 44
-1.044475 -0.006370 3.995849 52 87 42
-1.037269 -0.003446 3.992054 61 94 43
-1.015362 -0.000925 3.994349 43 90 39
-1.051667 -0.014928 3.997174 43 70 38
-1.044938 -0.015216 3.993107 49 74 43
-1.053562 -0.024825 3.995403 17 29 16
-1.042078 -0.025916 3.991246 19 31 21
-1.049717 -0.032917 3.993870 2 5 4
-1.461918 0.366022 4.003767 18 25 15
-1.452261 0.367039 4.004386 32 44 24
-1.443125 0.369055 4.003257 44 66 31
-0.972887 0.356959 4.004100 3 6 3
-0.966364 0.352928 4.006183 14 27 13
-1.031413 0.342736 4.007805 1 2 1
-0.987454 0.344261 4.009286 6 9 5
-0.975658 0.343055 4.005558 4 8 3
-0.958892 0.349434 4.004633 22 41 21
-0.954039 0.344056 4.005212 37 70 34
-1.055598 0.331432 4.008965 3 3 3
-1.040622 0.332955 4.008869 5 8 4
-1.023333 0.336772 4.006267 3 4 2
-1.012723 0.335637 4.005776 5 8 5
-1.006298 0.331375 4.002068 4 9 4
-0.982680 0.337553 4.007523 18 31 17
-0.973820 0.333810 4.003621 24 41 22
-0.964995 0.340267 4.000909 5 8 6
-0.950811 0.337352 4.004319 44 85 42
-0.946179 0.331544 4.000198 46 88 41
-0.909690 0.332409 4.003898 47 94 42
-0.901576 0.338578 4.002324 47 92 42
-1.032163 0.326684 4.007398 18 28 15
-1.023358 0.325332 4.005453 17 27 14
-1.013446 0.325205 4.002409 14 22 12
-0.982884 0.327429 4.009496 54 84 39
-0.974011 0.324556 4.007172 48 84 39
-0.965721 0.326014 4.002176 49 77 41
-0.952120 0.324226 4.005540 44 90 38
-0.934585 0.322321 4.003060 47 90 39
-0.911448 0.326539 4.004867 47 92 43
-1.034881 0.316184 4.008783 41 64 32
-1.022650 0.316712 4.004385 42 66 34
-1.012449 0.315205 4.000947 42 66 35
-0.983166 0.312864 4.009503 54 90 38
-0.971757 0.315346 4.005172 51 90 39
-0.963816 0.313010 4.003944 49 89 39
-0.939634 0.318679 4.007479 44 87 37
-0.933426 0.314155 4.004784 45 85 42
-1.040328 0.307232 4.009436 51 83 40
-1.031966 0.307028 4.007309 47 78 34
-1.022889 0.304926 4.004858 54 88 40
-1.014419 0.307008 4.002381 53 88 40
-1.007417 0.305246 4.000984 50 88 34
-0.980263 0.307794 4.008114 53 89 40
-0.970548 0.307353 4.004691 50 88 38
-0.961982 0.303140 4.005052 41 82 36
-0.954748 0.306784 4.002801 45 82 40
-0.922655 0.308699 4.004319 42 76 44
-0.912666 0.305650 4.002928 34 62 37
-1.114053 0.293250 4.005881 14 28 14
-1.041788 0.294805 4.006551 28 55 27
-1.032067 0.296930 4.005980 51 84 36
-1.022797 0.296498 4.006908 53 90 38
-1.013278 0.296383 4.002913 53 91 38
-0.984126 0.295945 4.006391 52 84 40
-0.972664 0.296553 4.004488 48 83 40
-0.961576 0.295445 4.002396 41 84 35
-0.951648 0.299935 4.001781 39 68 38
-0.903706 0.297408 4.004686 9 17 9
-0.822044 0.294528 4.006206 47 82 34
-1.106393 0.285262 4.005951 36 64 35
-1.083597 0.287105 4.005814 35 60 35
-1.039239 0.287669 4.005421 46 81 40
-1.031518 0.285932 4.006621 54 84 40
-1.022309 0.286447 4.006749 50 86 37
-1.013765 0.284302 4.002321 51 86 38
-1.007272 0.289025 4.001131 51 86 35
-0.979945 0.289422 4.006729 49 73 43
-0.972198 0.286597 4.004784 40 63 35
-0.964034 0.285599 4.002149 38 70 32
-0.813448 0.287308 4.006670 41 66 34
-0.804763 0.282982 4.001452 35 55 29
-1.372827 0.274753 4.001976 6 8 5
-1.361428 0.275882 4.004585 7 12 6
-1.351972 0.272613 4.006907 11 21 9
-1.341851 0.275297 4.007964 5 10 4
-1.331686 0.277416 4.008588 2 4 3
-1.324860 0.278190 4.008520 1 2 4
-1.179308 0.274236 4.008759 14 26 13
-1.172357 0.274119 4.008011 12 25 12
-1.160813 0.274498 4.004341 11 20 11
-1.151671 0.275722 4.002963 10 17 10
-1.144647 0.274995 4.001745 10 18 10
-1.041356 0.276083 4.005570 47 84 41
-1.029437 0.276686 4.005261 45 68 35
-1.020940 0.273723 4.006139 40 62 33
-1.013344 0.275620 4.003519 46 75 38
-1.007654 0.272172 4.000911 48 76 38
-0.980491 0.274370 4.006518 6 9 8
-0.973575 0.275387 4.002502 14 22 13
-0.964342 0.278807 4.003156 19 33 18
-0.956164 0.273440 4.003027 4 9 4
-0.803523 0.280409 4.007595 8 14 7
-0.797694 0.276318 4.003409 3 5 2
-1.382180 0.262338 4.002049 39 66 38
-1.372104 0.265729 4.003642 32 52 29
-1.361673 0.264701 4.006144 35 61 28
-1.351262 0.263942 4.008851 43 72 34
-1.344494 0.265547 4.009411 38 62 31
-1.178219 0.262979 4.008765 43 75 38
-1.171262 0.262871 4.008023 42 77 40
-1.164359 0.263320 4.007704 43 80 42
-1.153847 0.262485 4.006079 45 81 43
-1.143439 0.262722 4.005267 44 81 43
-1.133665 0.269487 4.000844 21 37 21
-1.064108 0.265089 4.009732 45 89 44
-1.045125 0.267210 4.007627 35 65 32
-1.032099 0.267119 4.001902 39 54 32
-1.024955 0.264871 4.005792 19 29 15
-1.012722 0.264224 4.002452 21 33 17
-1.004189 0.267952 4.000352 37 59 28
-1.392247 0.258779 4.000328 44 77 45
-1.378018 0.253299 4.003389 50 85 44
-1.371337 0.256102 4.004861 51 85 42
-1.364649 0.258794 4.006251 49 85 40
-1.350344 0.252601 4.008776 51 91 39
-1.343631 0.254985 4.009929 50 88 38
-1.163213 0.251626 4.007393 52 98 47
-1.156216 0.251238 4.006440 52 99 48
-1.132705 0.259899 4.002128 44 81 43
-1.122167 0.259030 4.000474 44 80 42
-1.061299 0.257332 4.007202 43 85 42
-1.052971 0.254912 4.001318 43 87 41
-1.039120 0.257379 4.003301 24 44 22
-1.033541 0.256444 4.004486 7 12 7
-1.025739 0.254492 4.001389 8 12 6
-1.391421 0.248118 4.000765 48 87 47
-1.384324 0.245673 4.002527 48 86 46
-1.373856 0.244311 4.004781 47 86 42
-1.363794 0.248095 4.006669 49 92 39
-1.353292 0.246378 4.008657 49 92 38
-1.149187 0.250578 4.005279 51 98 48
-1.142224 0.250584 4.004624 47 95 45
-1.131683 0.249710 4.002969 45 94 44
-1.121124 0.248735 4.001235 45 92 42
-1.062245 0.245866 4.006990 37 71 38
-1.054559 0.242979 4.003383 34 64 36
-1.394003 0.236885 4.001115 45 84 44
-1.373029 0.233846 4.005395 44 80 42
-1.362992 0.238103 4.007639 46 86 40
-1.352451 0.235998 4.009338 46 84 39
-1.168172 0.231049 4.009618 42 84 39
-1.161257 0.231575 4.009359 43 85 42
-1.143827 0.231564 4.007706 40 83 44
-1.060765 0.233279 4.007364 17 33 18
-1.053191 0.239308 4.006848 15 28 17
-1.043100 0.233631 4.004868 7 9 6
-1.389938 0.229119 4.003452 40 69 39
-1.383110 0.230140 4.003572 44 76 43
-1.372191 0.223254 4.005930 29 50 30
-1.362122 0.227190 4.007926 39 65 37
-1.355386 0.229482 4.009007 42 73 38
-1.139440 0.222475 4.009092 25 51 31
-1.132646 0.224485 4.005656 29 63 34
-1.122427 0.227162 4.002394 41 80 42
-1.111768 0.225490 4.000138 41 77 41
-1.068011 0.224952 4.009690 2 6 3
-1.053843 0.228042 4.003469 10 21 10
-1.046888 0.224401 4.000778 4 10 4
-1.402475 0.212096 4.000433 3 7 4
-1.392387 0.215964 4.002379 10 20 10
-1.382284 0.219566 4.004122 20 38 21
-1.371539 0.215134 4.008348 4 8 4
-1.361365 0.217776 4.009365 10 18 10
-1.354550 0.219109 4.009717 16 28 15
-1.260078 0.211454 4.005804 3 8 4
-1.128843 0.213889 4.007404 6 14 6
-1.122595 0.217115 4.006370 15 29 16
-1.110822 0.216163 4.001682 20 36 22
-1.402562 0.208417 4.007324 43 92 36
-1.381540 0.210118 4.005539 1 5 1
-1.334448 0.203396 4.000972 20 37 20
-1.288434 0.203394 4.000942 30 61 32
-1.280250 0.208819 4.004069 12 26 12
-1.267535 0.205832 4.002018 16 35 17
-1.246338 0.208215 4.002882 7 14 7
-1.113684 0.209719 4.005750 2 3 1
-1.424305 0.191902 4.004936 43 95 38
-1.300623 0.191738 4.000179 41 86 33
-1.290193 0.196580 4.001309 41 82 36
-1.283913 0.195224 4.004928 41 84 36
-1.161902 0.199603 4.002841 14 23 14
-1.431568 0.186323 4.001121 44 93 40
-1.422399 0.184331 4.006598 42 91 39
-1.411422 0.188818 4.002530 44 93 37
-1.404856 0.187375 4.005789 44 92 37
-1.302145 0.184869 4.000338 41 87 33
-1.292029 0.186154 4.001148 40 86 32
-1.443171 0.174681 4.000012 42 79 37
-1.432700 0.175945 4.004906 41 81 35
-1.311067 0.179909 4.007048 42 89 35
-1.299233 0.177114 4.005736 41 88 35
-1.291419 0.175357 4.007993 39 86 34
-1.281473 0.173049 4.008379 38 85 34
-1.253332 0.173722 4.007696 41 88 35
-1.213775 0.171752 4.006273 39 84 34
-1.187760 0.171008 4.002115 7 10 5
-1.270244 0.170411 4.007644 38 85 33
-1.223387 0.166664 4.004331 37 83 35
-1.217450 0.165395 4.008311 37 81 32
-1.206452 0.162824 4.007863 38 81 31
-1.251624 0.153840 4.000648 16 30 16
-1.198959 0.153845 4.009313 38 74 36
-1.190656 0.159022 4.003230 37 81 31
-1.179445 0.156398 4.002626 35 78 30
-1.170515 0.154360 4.004031 34 76 32
-1.163104 0.152713 4.006769 36 74 35
-1.293064 0.141185 4.007762 35 65 35
-1.264034 0.147350 4.005042 29 48 26
-1.178383 0.149061 4.009718 35 65 36
-1.296981 0.134248 4.008062 37 77 35
-1.281948 0.134632 4.003078 39 78 35
-1.274866 0.139674 4.000699 43 80 37
-1.261677 0.132140 4.003178 42 82 34
-1.289432 0.129807 4.005070 35 79 33
-1.262309 0.123425 4.006649 40 80 35
-1.250880 0.125916 4.003366 40 80 33
-1.243178 0.121386 4.000569 38 80 33
-1.262965 0.114568 4.004967 37 76 35
-1.254778 0.118992 4.003676 39 80 34
-1.247313 0.114595 4.000647 40 78 36
-1.124986 0.112360 4.007214 3 7 3
-1.284744 0.104286 4.009511 28 55 25
-1.273242 0.106753 4.006281 32 60 28
-1.264508 0.106197 4.002427 28 55 27
-1.131341 0.104878 4.004731 37 60 24
-1.127737 0.107346 4.000889 44 69 34
-1.108765 0.101664 4.007028 24 35 17
-1.103012 0.104227 4.004912 18 29 13
-1.095287 0.106120 4.003076 10 17 8
-1.082592 0.105156 4.001946 7 11 6
-1.279027 0.096329 4.006809 7 16 7
-1.267391 0.098722 4.003717 9 22 8
-1.139324 0.097182 4.006172 54 84 35
-1.132921 0.095238 4.002875 52 87 35
-1.113480 0.094942 4.005540 49 75 34
-1.107240 0.100464 4.001306 47 74 33
-1.143421 0.085631 4.006156 56 91 38
-1.132846 0.086576 4.002565 56 92 41
-1.123315 0.085523 4.006332 51 87 34
-1.112014 0.083336 4.003948 54 86 36
-1.105076 0.087820 4.000411 52 87 34
-1.139964 0.076276 4.006466 52 85 35
-1.132597 0.076488 4.004297 50 83 35
-1.121520 0.074242 4.006020 50 83 35
-1.113719 0.074307 4.002328 51 83 38
-1.151310 0.061673 4.004068 12 19 11
-1.143178 0.065812 4.004933 33 52 27
-1.131809 0.063158 4.006299 43 67 37
-1.123162 0.065131 4.004457 45 73 34
-1.110791 0.065815 4.000094 48 78 38
-0.848471 0.061975 4.000993 44 85 40
-1.154927 0.057362 4.006477 5 8 5
-0.853851 0.055894 4.004173 39 70 38
-0.860656 0.046182 4.007578 11 19 12
-0.855981 0.048184 4.000271 11 20 12
-1.052040 0.035452 4.004402 25 48 25
-1.060971 0.025806 4.008562 43 80 40
-1.008183 0.025002 4.003623 4 10 5
-1.053899 0.014794 4.007825 44 87 37
-1.029042 0.012540 4.008712 40 76 36
-1.021841 0.016469 4.005602 30 58 28
-1.014591 0.020349 4.002549 20 41 20
-1.028651 0.001118 4.005536 45 92 39
-1.025046 0.008627 4.003242 45 90 40
-1.063491 -0.008124 4.006022 56 92 41
-1.055396 -0.003993 4.003154 48 87 38
-1.043603 -0.005958 4.005322 43 87 35
-1.031646 -0.005956 4.004777 42 89 34
-1.071836 -0.011320 4.009528 54 91 39
-1.062134 -0.015093 4.003837 53 84 42
-1.056330 -0.015869 4.004441 39 72 37
-1.071707 -0.022281 4.007268 41 64 34
-1.063383 -0.023768 4.002149 32 47 27
-1.056995 -0.024880 4.002152 19 36 21
-1.079337 -0.033989 4.008290 4 6 3
-1.071037 -0.030484 4.004593 9 14 8
-1.065589 -0.030085 4.007553 12 23 15
-1.381710 0.396937 4.016570 5 10 5
-1.391495 0.383853 4.015109 34 49 29
-1.383635 0.381030 4.015809 33 49 28
-1.374914 0.383909 4.015961 16 26 14
-1.403854 0.371113 4.019277 38 58 27
-1.438213 0.370312 4.010982 29 42 19
-1.431275 0.370542 4.012684 30 42 20
-1.424618 0.370425 4.014183 32 45 21
-1.414463 0.370476 4.016560 34 52 23
-0.981597 0.363099 4.016275 9 17 9
-1.000277 0.353080 4.015894 2 3 2
-0.972622 0.354694 4.015045 31 55 26
-1.052999 0.346332 4.017506 2 3 1
-1.023728 0.349578 4.016334 2 5 2
-1.011732 0.347303 4.018034 12 21 10
-1.002218 0.344576 4.015179 14 24 12
-0.994879 0.342802 4.011728 12 20 10
-0.970351 0.345983 4.018651 52 92 44
-0.963530 0.346383 4.013919 48 87 42
-1.087940 0.334794 4.019197 16 22 15
-1.082976 0.332455 4.016712 15 25 13
-1.073248 0.331510 4.013061 7 11 5
-1.060604 0.336917 4.019025 15 24 13
-1.053200 0.334199 4.016493 19 31 15
-1.046027 0.336316 4.013487 8 15 7
-1.035228 0.336963 4.011317 5 7 3
-1.014115 0.337405 4.018262 45 66 37
-1.002677 0.335679 4.014226 42 65 34
-0.991180 0.336038 4.012774 35 59 30
-0.983470 0.333609 4.014332 38 73 35
-0.962387 0.335035 4.012879 46 93 43
-1.080271 0.327273 4.018638 41 64 34
-1.073658 0.326712 4.017283 37 59 30
-1.063905 0.325355 4.016680 43 65 33
-1.052905 0.325533 4.014022 35 55 26
-1.041928 0.325528 4.011428 32 49 25
-1.036280 0.320711 4.010582 49 73 38
-1.020672 0.327814 4.018834 54 87 37
-1.011079 0.324679 4.017806 54 86 41
-1.002503 0.324199 4.016605 50 86 38
-0.992568 0.325457 4.013683 49 86 37
-0.980645 0.326864 4.013896 41 86 35
-0.963384 0.328318 4.015440 43 87 43
-0.952170 0.323199 4.015353 43 86 40
-1.071463 0.316938 4.018279 58 91 42
-1.062284 0.313254 4.016770 57 91 40
-1.052695 0.313930 4.014962 37 63 29
-1.045777 0.314522 4.011937 56 88 42
-1.004575 0.313875 4.016946 54 87 38
-0.995489 0.315983 4.016567 47 87 37
-0.983953 0.317649 4.012861 45 88 35
-0.972305 0.314004 4.014100 42 83 39
-0.926036 0.311111 4.012161 39 70 40
-1.128458 0.305301 4.013446 4 9 3
-1.067953 0.301027 4.019787 56 90 40
-1.059355 0.306358 4.017697 48 81 36
-1.052567 0.306665 4.014939 55 91 39
-1.043891 0.305930 4.012019 49 82 36
-1.003218 0.304807 4.017599 53 83 38
-0.991648 0.305313 4.014051 49 84 38
-0.981470 0.305539 4.015362 41 81 37
-0.973982 0.305471 4.011143 41 84 34
-0.962976 0.305731 4.015297 28 49 28
-0.951496 0.301069 4.019934 4 9 4
-0.928724 0.309405 4.018715 21 36 20
-0.920928 0.305942 4.012969 21 36 22
-0.914682 0.301714 4.014814 4 7 4
-0.827742 0.302224 4.018494 48 80 34
-1.120702 0.297422 4.013630 21 40 18
-1.068775 0.299687 4.017926 50 84 36
-1.061615 0.295532 4.018134 47 83 36
-1.053428 0.296115 4.015589 48 81 36
-1.043433 0.295149 4.012369 53 88 38
-1.033693 0.295551 4.010307 54 90 38
-1.000880 0.295737 4.016472 49 76 40
-0.992475 0.294569 4.014300 44 71 36
-0.982237 0.292497 4.015145 29 51 30
-0.952129 0.300045 4.010359 21 36 21
-0.829265 0.296333 4.017662 47 76 37
-0.826117 0.293427 4.014608 43 70 34
-1.242362 0.282059 4.012101 2 2 3
-1.112795 0.289699 4.013980 40 73 36
-1.093068 0.288554 4.015167 41 78 41
-1.086685 0.284581 4.016647 46 86 47
-1.059275 0.285479 4.018291 43 66 36
-1.051154 0.287249 4.015719 46 76 38
-1.042301 0.286426 4.014290 48 77 40
-1.032993 0.285641 4.011993 50 80 39
-1.027296 0.281913 4.011089 46 74 38
-1.016402 0.282197 4.019426 7 14 6
-1.003869 0.286485 4.018058 16 26 14
-0.993206 0.283590 4.013336 18 27 15
-0.983182 0.286323 4.013252 23 36 20
-0.974410 0.284337 4.012914 13 24 13
-0.818262 0.287882 4.014918 27 44 23
-0.812617 0.283696 4.013598 10 17 9
-1.314022 0.272422 4.011682 12 21 10
-1.303891 0.274998 4.012656 7 13 5
-1.293666 0.276467 4.012785 4 10 4
-1.283434 0.277870 4.012866 3 7 3
-1.272829 0.275065 4.014017 14 25 13
-1.262552 0.276026 4.013759 12 23 11
-1.252319 0.277518 4.013907 10 19 10
-1.241784 0.275689 4.015801 16 34 15
-1.231458 0.276218 4.015216 16 33 15
-1.221145 0.276941 4.014778 18 31 18
-1.214274 0.277485 4.014531 18 31 17
-1.203823 0.276828 4.013043 15 28 14
-1.193416 0.276676 4.011938 14 25 13
-1.186475 0.276590 4.011213 14 25 13
-1.062409 0.275804 4.018370 34 62 30
-1.053759 0.275071 4.015080 30 50 27
-1.043551 0.276749 4.014550 34 49 30
-1.034787 0.277316 4.013364 33 50 29
-1.024543 0.276922 4.010043 39 63 33
-1.011677 0.279646 4.019501 2 5 2
-0.999394 0.279007 4.016072 2 4 2
-0.989807 0.274582 4.010471 4 5 3
-1.334360 0.268131 4.010391 28 45 25
-1.324191 0.270269 4.011031 19 31 20
-1.313285 0.263750 4.013631 42 69 34
-1.303098 0.265752 4.014167 34 59 29
-1.292888 0.267480 4.014494 29 55 24
-1.282730 0.269832 4.015295 27 48 24
-1.268122 0.260918 4.015758 49 84 40
-1.261341 0.262452 4.016265 48 83 39
-1.254531 0.263656 4.016523 46 84 39
-1.244193 0.264132 4.015898 43 81 35
-1.233835 0.264415 4.015127 41 79 34
-1.223515 0.265167 4.014710 42 77 39
-1.213221 0.266224 4.014527 42 76 39
-1.202723 0.265187 4.012750 41 74 37
-1.192152 0.263466 4.010454 42 74 38
-1.185433 0.265735 4.011519 42 74 38
-1.080736 0.264591 4.018682 44 82 41
-1.073396 0.266490 4.014531 44 87 42
-1.059510 0.266704 4.015109 30 55 27
-1.053553 0.264622 4.013986 7 12 6
-1.043267 0.265694 4.011332 11 17 10
-1.032797 0.267468 4.010316 11 18 10
-1.333517 0.257950 4.011196 48 83 39
-1.323377 0.260570 4.012200 46 77 42
-1.312329 0.252420 4.013577 50 87 42
-1.302153 0.254672 4.014301 49 86 40
-1.291941 0.256514 4.014714 47 85 36
-1.281765 0.258768 4.015440 48 84 37
-1.274565 0.255540 4.016611 48 87 38
-1.263986 0.253290 4.018195 48 91 37
-1.253826 0.255814 4.019125 49 90 39
-1.247035 0.257284 4.019584 50 89 41
-1.072595 0.256862 4.014526 39 74 38
-1.066836 0.251968 4.010532 38 74 37
-1.342777 0.244550 4.010559 48 91 38
-1.332642 0.247361 4.011707 48 91 39
-1.322483 0.249867 4.012624 49 89 44
-1.311458 0.242109 4.014311 50 88 42
-1.301263 0.244265 4.014962 50 89 42
-1.294376 0.244620 4.014576 49 89 38
-1.284303 0.248211 4.016312 49 89 36
-1.242134 0.241419 4.015790 48 90 41
-1.231799 0.242197 4.015396 48 91 41
-1.225349 0.247461 4.018727 47 91 41
-1.072596 0.248103 4.016994 26 48 27
-1.066151 0.242453 4.015162 7 14 8
-1.341903 0.233862 4.011013 44 83 39
-1.331785 0.237012 4.012417 45 88 42
-1.321625 0.239609 4.013400 48 89 44
-1.303747 0.232805 4.015169 46 82 41
-1.293543 0.234973 4.015827 49 86 43
-1.283300 0.236667 4.016127 48 86 40
-1.273050 0.238298 4.016378 48 89 39
-1.262766 0.239550 4.016343 46 90 39
-1.252459 0.240566 4.016128 46 90 39
-1.182127 0.231318 4.011136 45 86 39
-1.175270 0.232386 4.011289 45 85 39
-1.154480 0.233466 4.010134 43 85 45
-1.092301 0.236137 4.017913 16 32 21
-1.067657 0.239821 4.012248 22 42 25
-1.051686 0.235782 4.010468 2 5 3
-1.344378 0.221748 4.010732 24 45 23
-1.334219 0.224541 4.011862 32 60 34
-1.324043 0.227090 4.012808 39 70 39
-1.313504 0.225341 4.014787 33 57 30
-1.302983 0.223879 4.016979 24 45 24
-1.292707 0.225275 4.017053 30 55 29
-1.282374 0.226027 4.016641 35 62 32
-1.272066 0.227091 4.016463 40 71 36
-1.262674 0.225490 4.017237 30 58 30
-1.253328 0.224465 4.018446 23 44 23
-1.244222 0.226153 4.017422 30 55 28
-1.233821 0.226346 4.016586 31 57 29
-1.223423 0.226611 4.015803 32 60 30
-1.212981 0.226479 4.014720 33 62 30
-1.202560 0.226602 4.013830 36 66 34
-1.192095 0.226340 4.012647 36 68 34
-1.181323 0.222872 4.013332 32 56 33
-1.174405 0.223371 4.013053 32 57 33
-1.163963 0.223508 4.012172 30 57 32
-1.153570 0.224181 4.011696 29 55 34
-1.146527 0.223520 4.010539 27 53 33
-1.081956 0.228428 4.012187 11 20 12
-1.075003 0.225690 4.010183 6 12 7
-1.343576 0.211956 4.011895 3 5 3
-1.333296 0.213314 4.011941 7 13 7
-1.323212 0.217127 4.013841 12 22 12
-1.312589 0.214625 4.019536 2 3 2
-1.302328 0.216259 4.019790 2 6 3
-1.292040 0.217579 4.019806 4 10 4
-1.281714 0.218480 4.019507 8 15 6
-1.271461 0.220254 4.019866 11 20 11
-1.211887 0.214673 4.018672 2 5 2
-1.201412 0.214336 4.017437 4 7 4
-1.194426 0.214117 4.016617 5 8 5
-1.183985 0.214239 4.015726 5 8 5
