ply
format ascii 1.0
element vertex 1303
property float x
property float y
property float z
property uchar red
property uchar green
property uchar blue
end_header
-0.340475 0.147277 2.449294 42 56 40
-0.429543 0.138444 2.447662 40 85 42
-0.393463 0.134333 2.444796 39 62 36
-0.387250 0.138368 2.442292 24 35 23
-0.356038 0.132721 2.444887 22 34 22
-0.346832 0.140525 2.448508 26 38 26
-0.319363 0.130906 2.444400 21 33 20
-0.423591 0.129115 2.444587 41 86 42
-0.403061 0.125720 2.446754 44 72 40
-0.396995 0.124722 2.440896 43 71 39
-0.381353 0.123909 2.448082 45 72 38
-0.373897 0.128028 2.444890 37 58 32
-0.363855 0.126734 2.445414 37 57 39
-0.320666 0.125955 2.445767 38 56 37
-0.428061 0.113650 2.447468 2 3 1
-0.420736 0.112213 2.440125 52 101 37
-0.412990 0.116041 2.447104 15 22 14
-0.404441 0.117453 2.442075 33 48 31
-0.381557 0.116042 2.444269 43 67 38
-0.372293 0.120270 2.445439 41 63 42
-0.334040 0.116279 2.446099 34 48 36
-0.323592 0.115379 2.444417 38 57 38
-0.312000 0.116749 2.441343 35 45 32
-0.388613 0.110086 2.445361 33 50 30
-0.384709 0.107807 2.442953 21 32 20
-0.354694 0.104912 2.444988 26 49 25
-0.344777 0.104781 2.446682 36 57 36
-0.334241 0.103654 2.445320 32 48 32
-0.321177 0.105833 2.441238 15 22 16
-0.359952 0.098106 2.442171 16 22 15
-0.351071 0.095667 2.446464 57 102 38
-0.343701 0.095579 2.441042 50 84 38
-0.336512 0.098838 2.445333 39 52 38
-0.350911 0.086412 2.444627 41 69 38
-0.343960 0.085141 2.442204 36 53 32
-0.336031 0.090006 2.442878 2 4 2
-0.388783 0.074358 2.446465 4 7 5
-0.382664 0.073062 2.441987 2 3 2
-0.361449 0.075006 2.445643 43 71 37
-0.354203 0.076075 2.445506 38 64 33
-0.343657 0.071928 2.446084 37 54 35
-0.331687 0.073168 2.446171 24 37 16
-0.327504 0.073774 2.441627 9 15 11
-0.371025 0.066039 2.446836 19 29 19
-0.363290 0.065494 2.445745 28 45 28
-0.353423 0.065106 2.445563 45 72 41
-0.342952 0.066234 2.445631 42 64 34
-0.334868 0.064637 2.443894 22 35 20
-0.323578 0.066924 2.445560 30 59 29
-0.370554 0.054018 2.447956 11 19 11
-0.361412 0.054601 2.445748 37 60 36
-0.353855 0.056233 2.444296 47 77 43
-0.342331 0.056222 2.445255 41 68 37
-0.335471 0.060189 2.444260 48 83 45
-0.321153 0.055681 2.446405 15 34 12
-0.313315 0.057934 2.442767 25 55 21
-0.370548 0.046544 2.444634 4 7 4
-0.363730 0.048050 2.444765 32 48 31
-0.353388 0.047828 2.443444 55 83 49
-0.345105 0.049804 2.440275 53 87 45
-0.327821 0.043951 2.447343 40 69 24
-0.317436 0.048088 2.443947 47 83 30
-0.300992 0.046221 2.446443 40 67 29
-0.297348 0.033626 2.443457 47 79 35
-0.997805 0.543520 2.457794 1 1 1
-1.015379 0.535300 2.453428 14 11 8
-0.999088 0.533175 2.452307 6 7 5
-0.992111 0.535418 2.453575 23 18 11
-0.985028 0.534810 2.456415 7 9 8
-0.972971 0.535790 2.452712 1 1 1
-0.966274 0.534728 2.454322 1 1 1
-0.949014 0.539837 2.452043 4 7 6
-1.020091 0.525907 2.453330 35 39 33
-1.010571 0.525419 2.455036 18 18 13
-1.000935 0.524000 2.455106 40 38 26
-0.994329 0.525631 2.456281 43 42 31
-0.983277 0.524535 2.457297 40 37 25
-0.962276 0.526806 2.454857 38 44 42
-0.953431 0.525412 2.455976 50 63 58
-1.028763 0.512673 2.458631 37 38 22
-1.022909 0.513790 2.456162 39 49 42
-1.013070 0.515136 2.453303 35 35 23
-1.002752 0.515087 2.453965 58 61 46
-0.993702 0.514355 2.457163 70 73 62
-0.980290 0.514201 2.450477 79 73 58
-0.971716 0.514429 2.455613 48 41 30
-0.964004 0.514705 2.454775 58 54 40
-0.956211 0.512979 2.456232 45 44 29
-0.943399 0.516138 2.455510 43 41 24
-0.935611 0.514992 2.457081 49 48 24
-1.030817 0.508273 2.453025 23 29 25
-1.023211 0.506080 2.455117 31 35 28
-1.012031 0.506600 2.454178 30 31 24
-1.003441 0.506410 2.455383 39 41 31
-0.994818 0.504996 2.455345 43 43 29
-0.980878 0.503473 2.455020 91 92 75
-0.972675 0.505722 2.455005 109 113 91
-0.963742 0.506176 2.455997 81 83 65
-0.951839 0.505648 2.456448 41 39 29
-0.942226 0.502789 2.458877 36 31 19
-0.932400 0.505177 2.454853 34 30 19
-0.926677 0.502761 2.456248 13 10 7
-1.030186 0.500205 2.458270 25 29 26
-1.021659 0.497280 2.457355 20 25 20
-1.013661 0.495591 2.454407 32 36 26
-1.002946 0.495539 2.455430 29 32 26
-0.993114 0.495828 2.455958 28 26 17
-0.983344 0.496038 2.455576 73 72 46
-0.972701 0.496338 2.453914 88 95 72
-0.963828 0.495392 2.455873 108 115 92
-0.955814 0.499359 2.458035 8 12 10
-0.916220 0.497084 2.454295 17 19 9
-1.020475 0.482995 2.453050 11 13 12
-1.011770 0.486252 2.454237 53 56 48
-1.003337 0.485553 2.455954 43 47 40
-0.990926 0.486722 2.453400 46 46 33
-0.983711 0.486112 2.455901 50 49 34
-0.972542 0.485492 2.455221 39 42 27
-0.967318 0.486368 2.459282 40 47 32
-1.020818 0.476205 2.454717 4 5 5
-1.012662 0.477795 2.455990 19 22 19
-1.004488 0.477896 2.458198 20 24 21
-0.995837 0.475260 2.453556 44 48 38
-0.984464 0.476281 2.454879 31 37 33
-0.971638 0.476120 2.456129 17 16 12
-0.962907 0.474719 2.455067 32 33 20
-0.993344 0.468530 2.458010 37 43 40
-0.963679 0.467166 2.457147 5 5 4
-0.949376 0.461240 2.457112 2 2 2
-1.012006 0.456081 2.452602 0 0 0
-1.000952 0.456084 2.454977 13 16 13
-0.991543 0.454394 2.455055 47 59 45
-0.983462 0.451568 2.458732 57 77 52
-0.972000 0.457305 2.456009 70 89 68
-0.960234 0.459735 2.454618 17 22 15
-0.953184 0.455818 2.458365 41 38 23
-1.002165 0.442241 2.455726 16 22 13
-0.994216 0.445753 2.452850 23 33 26
-0.982128 0.443343 2.454313 57 77 48
-0.973262 0.444790 2.453573 28 40 24
-0.962398 0.446662 2.455888 25 39 23
-0.954953 0.446618 2.453976 4 5 4
-0.934339 0.444814 2.459252 37 36 17
-0.984077 0.440040 2.457952 71 91 49
-0.470731 0.186989 2.452104 32 63 38
-0.459721 0.176827 2.453878 34 73 42
-0.453495 0.167614 2.456286 36 77 42
-0.329422 0.168337 2.454406 27 40 24
-0.450244 0.158861 2.455808 38 81 43
-0.445108 0.157680 2.450276 39 81 44
-0.338787 0.158893 2.456371 36 56 31
-0.439425 0.140738 2.459068 40 86 42
-0.433901 0.147547 2.452302 38 83 41
-0.402439 0.143886 2.457331 31 47 28
-0.395695 0.142986 2.451973 23 36 21
-0.347785 0.149782 2.458016 41 57 39
-0.434316 0.139567 2.453527 39 84 41
-0.408890 0.134806 2.456461 46 75 40
-0.403368 0.135714 2.452989 43 72 38
-0.382928 0.133940 2.456848 35 61 28
-0.374647 0.133213 2.454237 34 53 33
-0.363069 0.138348 2.454321 17 25 17
-0.331091 0.135117 2.455643 17 27 18
-0.324569 0.136005 2.452615 16 24 16
-0.413787 0.124941 2.455327 39 60 35
-0.405492 0.129341 2.450566 44 77 39
-0.389542 0.124964 2.457789 43 70 38
-0.383948 0.126231 2.454706 43 70 40
-0.372593 0.127399 2.451874 39 60 41
-0.344983 0.123573 2.458476 28 40 27
-0.331135 0.125877 2.457580 41 64 37
-0.324268 0.126072 2.453101 35 53 35
-0.400067 0.113406 2.459977 17 30 16
-0.392899 0.114117 2.453101 33 52 30
-0.384688 0.118150 2.452415 39 60 41
-0.360080 0.110724 2.454893 15 22 16
-0.347921 0.111964 2.458886 42 64 43
-0.341345 0.118877 2.452832 36 49 35
-0.333300 0.116251 2.455160 30 44 30
-0.327149 0.113949 2.451977 23 35 22
-0.397305 0.108514 2.456117 7 12 8
-0.370864 0.104811 2.456860 19 27 19
-0.361260 0.105905 2.456694 29 46 29
-0.351982 0.107296 2.453707 35 55 35
-0.342712 0.106164 2.455166 35 50 34
-0.333369 0.107374 2.452958 16 25 17
-0.352629 0.094572 2.456309 46 81 34
-0.368839 0.081916 2.456179 41 71 37
-0.361326 0.085947 2.454540 44 74 40
-0.353727 0.087887 2.451642 42 64 37
-0.345899 0.082993 2.454023 47 80 38
-0.378423 0.072968 2.457352 28 40 27
-0.372068 0.074835 2.455227 43 65 41
-0.361623 0.074155 2.453613 44 72 41
-0.352275 0.073576 2.457630 41 64 33
-0.342831 0.073775 2.453556 24 36 23
-0.334870 0.073311 2.454873 24 40 18
-0.383489 0.069182 2.457359 2 5 3
-0.373053 0.065776 2.455335 17 25 16
-0.362482 0.065600 2.455663 45 72 40
-0.352891 0.065965 2.455138 41 66 39
-0.342835 0.066162 2.455961 25 40 20
-0.334659 0.064393 2.452753 35 60 32
-0.326263 0.064013 2.453541 30 56 26
-0.313448 0.062088 2.453008 22 46 20
-0.378808 0.053798 2.457327 10 17 10
-0.371703 0.057030 2.455938 28 43 26
-0.363587 0.056111 2.452998 47 76 44
-0.353214 0.056379 2.452090 47 78 43
-0.344218 0.058133 2.454671 21 36 18
-0.318618 0.052446 2.455382 11 19 9
-0.378691 0.047404 2.454290 7 11 8
-0.372642 0.049601 2.455844 26 41 27
-0.362794 0.049523 2.452584 54 77 50
-0.340332 0.040949 2.459698 18 31 16
-0.330098 0.045155 2.456117 44 74 27
-0.319690 0.049281 2.452746 46 83 28
-0.336975 0.039283 2.452164 15 25 12
-1.008444 0.545999 2.467386 1 0 0
-1.015904 0.534149 2.465536 13 18 16
-0.992788 0.536798 2.466081 1 1 1
-0.985142 0.532382 2.464635 13 14 8
-1.018101 0.521047 2.467397 3 4 4
-1.014832 0.526068 2.466530 50 61 57
-1.002894 0.523230 2.465135 42 39 27
-0.991533 0.524788 2.463977 35 28 20
-0.983895 0.525518 2.465848 26 26 21
-0.974342 0.526055 2.464393 7 5 4
-0.960437 0.524836 2.466083 22 18 15
-0.952863 0.524345 2.466097 4 4 4
-0.946595 0.529357 2.465021 7 9 8
-0.936724 0.530343 2.464213 4 5 7
-1.021888 0.514355 2.463306 16 21 18
-1.014381 0.515731 2.465906 47 58 55
-1.001370 0.514925 2.463676 57 59 46
-0.992961 0.515778 2.466181 79 81 69
-0.984101 0.513490 2.466088 100 108 99
-0.973431 0.515802 2.465231 49 49 33
-0.962093 0.514609 2.463471 52 47 34
-0.952610 0.513285 2.464751 49 53 40
-0.940846 0.514998 2.465910 33 41 32
-1.022178 0.506525 2.464086 41 47 37
-1.013599 0.503906 2.465069 60 69 59
-1.001538 0.506219 2.464233 51 53 43
-0.992370 0.505358 2.464600 42 45 37
-0.984092 0.504750 2.466460 28 29 26
-0.971333 0.504701 2.463950 108 107 90
-0.961963 0.505047 2.465217 82 81 66
-0.952954 0.505764 2.466021 64 63 45
-0.943773 0.507737 2.466496 38 38 23
-0.932947 0.503704 2.463837 31 33 20
-0.926854 0.507156 2.466454 39 39 24
-1.024701 0.494971 2.469366 54 66 57
-1.012720 0.495863 2.465077 30 35 27
-1.003375 0.495623 2.464262 44 45 34
-0.992189 0.494844 2.465006 27 30 23
-0.984700 0.495882 2.465241 42 44 31
-0.973150 0.496063 2.463968 123 127 97
-0.962890 0.496091 2.465556 128 135 113
-0.954411 0.497506 2.464931 106 113 98
-0.943545 0.496973 2.466134 52 52 36
-0.932607 0.495353 2.464802 34 31 20
-0.924945 0.497270 2.464405 28 22 12
-0.915418 0.496200 2.465657 5 4 2
-0.904814 0.494861 2.463551 7 7 5
-1.030005 0.488544 2.467135 13 17 14
-1.021719 0.486356 2.465312 5 7 6
-1.011253 0.488167 2.466460 27 30 25
-1.001414 0.487214 2.465813 44 50 43
-0.992806 0.486652 2.465709 34 38 34
-0.983485 0.486611 2.465539 32 34 25
-0.973687 0.486110 2.466097 51 50 32
-0.962741 0.485831 2.464781 66 73 52
-0.955108 0.486748 2.467928 101 110 87
-0.921118 0.490493 2.468086 20 25 12
-0.904046 0.485867 2.465356 40 32 19
-1.011168 0.476690 2.463644 11 12 8
-1.001878 0.475260 2.464757 41 45 36
-0.994391 0.475244 2.467187 64 70 54
-0.982992 0.477245 2.463514 40 43 28
-0.973331 0.476690 2.467233 60 62 42
-0.963238 0.474341 2.464074 21 19 11
-0.954506 0.472929 2.465334 43 47 30
-0.947520 0.471855 2.468491 1 1 1
-1.011930 0.467117 2.464023 7 9 7
-1.002984 0.467770 2.466504 13 16 11
-0.992064 0.466144 2.465907 18 19 14
-0.982451 0.466708 2.465766 52 62 52
-0.975179 0.464202 2.466074 81 96 82
-0.963659 0.465637 2.464865 13 16 13
-0.954573 0.464249 2.466514 13 13 7
-1.018951 0.457632 2.468079 0 0 0
-1.015041 0.453400 2.467260 1 2 1
-0.996033 0.455201 2.464640 6 7 5
-0.963268 0.457386 2.466396 22 30 20
-0.953561 0.454418 2.466481 21 27 16
-0.945055 0.454875 2.465089 3 5 4
-0.934530 0.452757 2.468570 42 49 17
-1.020401 0.447221 2.468868 0 1 0
-1.007049 0.444996 2.465879 1 0 1
-0.990905 0.444540 2.464650 10 17 10
-0.979323 0.445125 2.467789 35 54 33
-0.971917 0.446511 2.463249 59 86 51
-0.962855 0.444303 2.465096 33 50 26
-0.955507 0.441569 2.464200 1 2 0
-0.930495 0.442350 2.465841 16 14 6
-0.992097 0.438375 2.464685 11 17 9
-0.984806 0.437750 2.464337 39 55 29
-0.972621 0.438146 2.465711 49 72 39
-0.960703 0.439165 2.466829 32 51 29
-0.952743 0.438418 2.465776 25 43 27
-0.941998 0.438175 2.467790 4 9 6
-0.964615 0.415686 2.463155 46 79 50
-0.954363 0.414907 2.464435 39 66 45
-0.943388 0.414899 2.466753 17 30 22
-0.973452 0.407169 2.467114 31 56 41
-0.963825 0.405721 2.467494 44 77 48
-0.956045 0.402336 2.465273 46 76 48
-0.943094 0.404151 2.464896 18 30 21
-0.961031 0.397599 2.469184 49 82 51
-0.948118 0.399369 2.468739 40 65 43
-0.936166 0.400140 2.466962 5 10 6
-0.472295 0.187828 2.466399 34 71 39
-0.464327 0.178135 2.465209 34 75 40
-0.460287 0.169251 2.465485 38 80 44
-0.457452 0.160764 2.469859 42 84 45
-0.345139 0.162250 2.464203 35 55 32
-0.337401 0.170253 2.463737 25 37 23
-0.453970 0.159830 2.462716 39 81 42
-0.402579 0.153823 2.467381 9 14 9
-0.352178 0.154873 2.464038 39 61 36
-0.435758 0.148446 2.466266 39 85 42
-0.412825 0.146195 2.466573 41 63 37
-0.403889 0.147642 2.461836 27 40 26
-0.366055 0.147062 2.467112 13 20 15
-0.422033 0.134642 2.467175 47 75 39
-0.414714 0.137863 2.462795 47 74 39
-0.393360 0.134980 2.466098 41 70 33
-0.381954 0.134929 2.464476 37 58 39
-0.334629 0.135102 2.465356 32 49 34
-0.421785 0.124600 2.463393 23 36 21
-0.403100 0.124027 2.467614 46 70 37
-0.393887 0.127116 2.462954 46 72 38
-0.352732 0.126616 2.467950 30 42 29
-0.342234 0.123784 2.466555 36 56 35
-0.333613 0.126394 2.463058 37 60 37
-0.421579 0.120523 2.467909 2 5 3
-0.409899 0.113623 2.466105 15 23 13
-0.402942 0.116810 2.464404 25 40 23
-0.395897 0.116952 2.460404 31 46 30
-0.375190 0.112030 2.468875 34 53 36
-0.363662 0.113452 2.467485 34 51 34
-0.352204 0.113272 2.465114 37 56 38
-0.343307 0.114962 2.462888 25 35 25
-0.366790 0.109803 2.464191 37 61 36
-0.353576 0.110145 2.463104 34 63 36
-0.346943 0.109888 2.460464 34 58 37
-0.381807 0.093477 2.468228 34 55 43
-0.368362 0.091966 2.465831 45 74 41
-0.362348 0.094698 2.462982 43 63 42
-0.353220 0.092666 2.465718 40 66 30
-0.378274 0.083832 2.466314 39 68 34
-0.372258 0.086550 2.463475 39 71 35
-0.366076 0.088858 2.460984 44 75 41
-0.352522 0.082257 2.464678 15 23 17
-0.347852 0.083707 2.462555 47 80 38
-0.388194 0.075728 2.466773 15 22 13
-0.383351 0.075030 2.464878 22 34 21
-0.373401 0.074394 2.466686 38 63 36
-0.362347 0.074218 2.466146 39 63 37
-0.352948 0.074453 2.466532 27 42 23
-0.344199 0.076509 2.464764 19 31 14
-0.334992 0.073724 2.462923 35 60 24
-0.381665 0.065199 2.467838 27 42 26
-0.372988 0.065465 2.464501 35 55 32
-0.363111 0.066313 2.464094 44 72 41
-0.353384 0.067944 2.464185 34 55 31
-0.343878 0.066927 2.463160 36 58 29
-0.332525 0.064572 2.464423 26 49 25
-0.316832 0.064513 2.461523 18 41 15
-0.388761 0.053599 2.466160 2 3 3
-0.382664 0.055852 2.465907 18 29 18
-0.372171 0.056200 2.463678 50 77 46
-0.364263 0.056799 2.463092 41 68 41
-0.353290 0.058024 2.465121 28 46 23
-0.346842 0.057619 2.464037 8 12 4
-0.317150 0.052637 2.463872 13 22 8
-0.383030 0.050287 2.464045 20 32 20
-0.342744 0.042214 2.468314 22 37 21
-0.332427 0.046383 2.464826 47 78 32
-0.321973 0.050488 2.461507 45 80 27
-0.999535 0.545706 2.473414 0 0 0
-1.004947 0.532705 2.477121 30 39 38
-0.988611 0.539302 2.471291 1 1 4
-0.983594 0.535175 2.473348 2 1 1
-0.973942 0.533825 2.477725 1 0 0
-0.965675 0.533982 2.470423 0 0 0
-1.012054 0.526089 2.474411 21 27 26
-1.007013 0.521179 2.476364 38 45 47
-0.994086 0.524750 2.476074 29 26 17
-0.981641 0.525827 2.474005 15 11 8
-0.974257 0.524759 2.474166 23 24 15
-0.961766 0.524885 2.475010 22 22 12
-0.952498 0.527803 2.477528 0 1 0
-0.933331 0.521181 2.470167 13 22 17
-1.011795 0.515806 2.472677 25 32 29
-1.003530 0.514727 2.476917 53 62 57
-0.991239 0.516339 2.476482 62 60 48
-0.983488 0.515964 2.473947 67 66 56
-0.972881 0.515996 2.476097 40 45 41
-0.964786 0.514156 2.475997 47 49 33
-0.953649 0.514270 2.472751 34 33 29
-0.945744 0.515487 2.475812 5 6 6
-1.011797 0.505584 2.474100 50 61 55
-1.004326 0.505304 2.475482 52 63 59
-0.992091 0.504007 2.473373 60 61 51
-0.982403 0.504971 2.474931 62 64 56
-0.975100 0.504748 2.475340 83 93 86
-0.961930 0.502029 2.473750 76 77 62
-0.952676 0.505227 2.474100 51 50 37
-0.943469 0.505060 2.473196 35 34 21
-0.933110 0.506128 2.475862 34 38 25
-0.927007 0.504001 2.476897 32 34 17
-1.011954 0.495698 2.473801 60 68 59
-1.002882 0.495354 2.475533 67 74 60
-0.991419 0.496582 2.474473 74 75 60
-0.983372 0.496000 2.475130 54 57 45
-0.972460 0.495873 2.475596 50 53 42
-0.962172 0.494525 2.473566 132 138 111
-0.953686 0.495623 2.474742 120 124 102
-0.943009 0.495237 2.475721 95 100 73
-0.933052 0.495848 2.475434 45 45 28
-0.924506 0.493817 2.475178 40 34 20
-1.021870 0.486400 2.474105 36 45 39
-1.009922 0.483966 2.474569 26 31 28
-1.001723 0.485151 2.474079 39 40 29
-0.993677 0.484729 2.475095 66 67 53
-0.983010 0.485991 2.474050 34 35 27
-0.973109 0.485651 2.476516 52 57 42
-0.962475 0.486706 2.474563 96 101 73
-0.952488 0.485524 2.475598 124 135 105
-0.944281 0.487573 2.476774 88 106 75
-0.932509 0.488334 2.476750 78 90 58
-0.921267 0.484584 2.477422 39 53 25
-0.914407 0.489514 2.472420 8 11 5
-0.904133 0.486753 2.476019 8 7 5
-1.020212 0.476348 2.475428 7 8 7
-1.011550 0.479245 2.472877 6 10 7
-1.002719 0.475522 2.477076 19 18 12
-0.991889 0.475866 2.474263 54 60 49
-0.982398 0.477804 2.476171 51 55 44
-0.972539 0.476943 2.475215 22 23 14
-0.962601 0.475830 2.475013 55 60 42
-0.952367 0.476189 2.475751 55 61 35
-0.945903 0.477265 2.477498 97 114 77
-1.009630 0.467181 2.473917 1 1 2
-1.002829 0.466339 2.475525 23 26 19
-0.992976 0.464647 2.476197 54 60 44
-0.984269 0.464322 2.475514 25 30 21
-0.971577 0.465829 2.474752 54 61 43
-0.963910 0.465994 2.476865 57 66 50
-0.952079 0.466296 2.474796 27 31 19
-0.944074 0.464354 2.477117 24 20 11
-1.001877 0.458246 2.475022 6 7 4
-0.993745 0.456844 2.474270 3 3 2
-0.982026 0.457034 2.475950 38 48 37
-0.970113 0.458056 2.477529 93 114 93
-0.960497 0.456175 2.475596 47 58 42
-0.951200 0.457153 2.475669 15 13 8
-0.943918 0.453999 2.475176 19 25 14
-0.923922 0.451726 2.474850 77 98 39
-1.011289 0.448612 2.473488 0 1 1
-0.985456 0.449797 2.479840 3 6 2
-0.952296 0.446316 2.474751 50 76 41
-0.942528 0.450344 2.476950 35 36 18
-0.930604 0.450219 2.475076 35 42 15
-0.921386 0.450109 2.479267 74 97 38
-0.990392 0.434008 2.473260 1 4 3
-0.981707 0.435502 2.471944 18 28 16
-0.972506 0.432652 2.473755 38 58 35
-0.962676 0.433272 2.473987 54 81 48
-0.954304 0.437424 2.474602 28 43 24
-0.943231 0.433411 2.476053 16 27 18
-0.924693 0.438461 2.474023 38 33 12
-0.984397 0.429552 2.474808 3 4 2
-0.975304 0.428205 2.477944 24 36 22
-0.964518 0.429127 2.476420 39 67 41
-0.972531 0.397332 2.471645 23 39 28
-0.966227 0.392641 2.472808 36 59 39
-0.954168 0.393505 2.471144 53 84 54
-0.941214 0.395329 2.470766 27 47 31
-0.932925 0.392758 2.474756 15 29 20
-0.971991 0.387085 2.475641 11 18 14
-0.962361 0.385639 2.476012 35 55 35
-0.952301 0.384658 2.477000 52 83 51
-0.943119 0.388170 2.475154 44 73 48
-0.925310 0.389484 2.477797 5 13 9
-0.971610 0.376661 2.479417 3 5 4
-0.487927 0.199316 2.476010 34 68 38
-0.486095 0.190946 2.479398 31 70 36
-0.479534 0.189538 2.475198 33 72 37
-0.470718 0.175678 2.475623 38 79 42
-0.346359 0.171278 2.473967 26 37 24
-0.465161 0.170395 2.471289 40 82 45
-0.354881 0.162566 2.475162 36 54 32
-0.419911 0.151016 2.477242 43 65 37
-0.412560 0.156223 2.474426 17 24 15
-0.368123 0.152792 2.475549 9 17 10
-0.363922 0.153391 2.476855 39 59 37
-0.442611 0.150087 2.475365 42 85 43
-0.423924 0.144383 2.473496 45 74 36
-0.374740 0.145287 2.477442 30 46 30
-0.342788 0.141901 2.475403 31 45 31
-0.432215 0.136326 2.474385 44 73 39
-0.426900 0.137843 2.474202 49 77 38
-0.402345 0.135782 2.474634 42 71 33
-0.393249 0.137309 2.473898 42 66 41
-0.353993 0.130961 2.478055 39 59 38
-0.342123 0.137121 2.479188 40 57 42
-0.335783 0.130912 2.474390 28 42 30
-0.439892 0.129679 2.478936 12 19 11
-0.431868 0.126938 2.474144 14 20 11
-0.412251 0.126602 2.476434 41 63 34
-0.403436 0.126589 2.470906 43 66 36
-0.368964 0.120800 2.477042 36 58 36
-0.362376 0.129695 2.479276 34 50 34
-0.354215 0.125972 2.473252 38 49 37
-0.347248 0.127317 2.474332 39 58 37
-0.421455 0.119522 2.476941 22 30 20
-0.414306 0.117393 2.475123 11 17 10
-0.389159 0.117267 2.479892 17 33 18
-0.381089 0.112613 2.476124 33 49 30
-0.372288 0.114510 2.475777 33 54 35
-0.362596 0.116819 2.476417 38 59 38
-0.353704 0.116971 2.474663 25 39 27
-0.382648 0.109822 2.478055 36 53 35
-0.373005 0.110314 2.473658 38 56 34
-0.389207 0.097133 2.478106 35 58 47
-0.382858 0.095267 2.474304 32 54 36
-0.373208 0.095119 2.472071 45 72 41
-0.366254 0.099242 2.474083 30 42 28
-0.354538 0.093640 2.473584 37 62 27
-0.339896 0.098913 2.477593 55 101 38
-0.390551 0.084627 2.475801 32 51 28
-0.383232 0.087263 2.472320 38 66 33
-0.368808 0.083020 2.478822 39 59 36
-0.362035 0.083733 2.475417 20 32 21
-0.350768 0.083465 2.475862 35 60 30
-0.391946 0.074969 2.474308 13 19 12
-0.382126 0.073832 2.475046 38 60 35
-0.372323 0.075761 2.474674 44 71 39
-0.362260 0.076670 2.475477 34 54 31
-0.355544 0.076262 2.473578 32 50 27
-0.342723 0.076566 2.474522 36 52 19
-0.335817 0.077186 2.474665 16 31 16
-0.392095 0.063387 2.477670 16 26 16
-0.383200 0.066083 2.475407 35 55 32
-0.373504 0.066678 2.473234 38 60 35
-0.364041 0.066668 2.473329 45 75 41
-0.344022 0.065053 2.473259 45 68 32
-0.334705 0.065422 2.477094 15 33 16
-0.391736 0.057295 2.475090 12 20 12
-0.383576 0.057894 2.477188 41 64 39
-0.373998 0.058307 2.472029 47 75 44
-0.366169 0.060556 2.470474 50 84 42
-0.350157 0.057877 2.476857 6 10 4
-0.324005 0.051585 2.470551 45 76 28
-0.345230 0.043509 2.476840 28 44 24
-0.334465 0.047486 2.473864 49 79 36
-1.002967 0.534421 2.480234 6 9 8
-0.994235 0.533619 2.486528 9 11 11
-1.009631 0.530073 2.481593 3 4 3
-1.002909 0.524592 2.483821 31 39 38
-0.997223 0.522562 2.484731 0 0 1
-0.985542 0.525425 2.486097 5 5 6
-0.971090 0.524149 2.484010 0 1 1
-0.965946 0.525720 2.488115 0 1 0
-1.012754 0.515944 2.485254 7 11 9
-1.001805 0.516382 2.484001 20 25 24
-0.992329 0.513984 2.486290 28 31 28
-0.984599 0.516000 2.485245 31 29 19
-0.972794 0.515660 2.483905 25 24 18
-0.963246 0.515743 2.486603 26 30 24
-0.954158 0.515201 2.483842 28 29 21
-0.944311 0.513955 2.484274 18 18 11
-0.928047 0.515363 2.482978 10 16 11
-1.001603 0.507403 2.483260 39 47 44
-0.994485 0.504820 2.486674 61 69 61
-0.981229 0.503618 2.482122 104 104 88
-0.973415 0.505805 2.484825 104 112 97
-0.962997 0.505162 2.486401 44 50 46
-0.951427 0.505450 2.487209 35 38 27
-0.943551 0.503354 2.483341 39 38 26
-0.934182 0.505252 2.486652 7 10 6
-0.923221 0.503356 2.485760 30 38 26
-1.010516 0.492014 2.481632 58 66 62
-1.002252 0.495838 2.484856 56 66 62
-0.993060 0.495736 2.483742 60 68 58
-0.981164 0.495163 2.483618 86 89 72
-0.973246 0.494742 2.485317 58 62 48
-0.963761 0.496672 2.486098 39 40 33
-0.952363 0.494540 2.483420 83 87 61
-0.941900 0.494596 2.485165 66 72 50
-0.931957 0.494670 2.484467 44 45 28
-0.923266 0.495078 2.484597 32 35 22
-1.009805 0.486732 2.482599 1 1 0
-1.002873 0.485691 2.486575 63 73 68
-0.992807 0.486022 2.484239 57 63 52
-0.983019 0.486101 2.484613 91 94 73
-0.972601 0.485195 2.485903 64 70 55
-0.963506 0.485579 2.484769 65 72 52
-0.952036 0.486148 2.484445 103 117 76
-0.942764 0.485215 2.485154 98 112 70
-0.932767 0.486971 2.485274 87 105 61
-0.924065 0.486321 2.486345 42 52 30
-0.915623 0.485748 2.484414 27 35 19
-0.902677 0.484521 2.482703 35 30 19
-0.894311 0.485313 2.484606 13 14 13
-1.010484 0.477780 2.485947 14 17 16
-1.001336 0.477451 2.484236 31 35 30
-0.992163 0.475396 2.484299 45 47 32
-0.981752 0.475688 2.484491 73 77 60
-0.973679 0.475047 2.486117 60 67 54
-0.962572 0.475466 2.485900 41 48 32
-0.951699 0.475845 2.484869 57 67 35
-0.942904 0.475852 2.485342 70 87 45
-0.935794 0.478289 2.487935 94 124 64
-0.924164 0.475802 2.483701 76 108 52
-0.911580 0.477136 2.487330 38 55 25
-0.903077 0.479298 2.489892 14 18 8
-1.018022 0.467200 2.486357 3 2 2
-1.004576 0.466436 2.484976 7 6 5
-0.992855 0.466653 2.485018 33 35 26
-0.982808 0.466429 2.484173 64 70 49
-0.972607 0.468274 2.487243 78 87 65
-0.962653 0.465545 2.483958 51 57 41
-0.954831 0.466114 2.485293 45 51 28
-0.942803 0.466424 2.484327 54 60 32
-0.933116 0.465232 2.486825 68 92 34
-1.001645 0.454687 2.484497 1 0 0
-0.991903 0.456736 2.485281 19 20 15
-0.983394 0.457493 2.485045 19 24 15
-0.974713 0.457479 2.486385 31 40 30
-0.962000 0.457220 2.486979 45 55 33
-0.955605 0.454651 2.485015 69 94 55
-0.942574 0.455991 2.484530 17 24 13
-0.936434 0.456671 2.488231 31 42 20
-0.990842 0.449112 2.480137 0 0 2
-0.982324 0.448968 2.485524 5 9 3
-0.943085 0.448331 2.484132 29 37 23
-0.933563 0.447184 2.483428 18 23 12
-0.921115 0.446351 2.485599 57 70 29
-0.950049 0.434999 2.483672 48 73 40
-0.939471 0.435433 2.487422 33 51 28
-0.935705 0.435192 2.483742 1 2 1
-0.921260 0.436681 2.484338 32 29 14
-0.980076 0.427485 2.481665 6 9 6
-0.972290 0.424114 2.483048 15 25 16
-0.962438 0.424249 2.484798 46 71 40
-0.954057 0.427008 2.485806 58 88 49
-0.971596 0.420092 2.488199 7 12 8
-0.962846 0.415435 2.486129 12 23 13
-0.943321 0.382811 2.481953 53 84 50
-0.929983 0.385063 2.482129 28 50 34
-0.921689 0.382513 2.486133 14 27 18
-0.962585 0.374839 2.484405 9 13 9
-0.954148 0.377556 2.481483 42 65 39
-0.941206 0.374229 2.488160 52 83 51
-0.935426 0.379824 2.485378 49 79 49
-0.927280 0.377112 2.489162 41 68 45
-0.913843 0.379495 2.489508 6 10 7
-0.962747 0.363833 2.487415 2 3 3
-0.952653 0.368308 2.486820 25 42 29
-0.496296 0.209496 2.487395 32 65 39
-0.491177 0.196172 2.484220 31 67 34
-0.480858 0.182064 2.486065 37 78 42
-0.476038 0.180927 2.480194 36 75 40
-0.472770 0.172360 2.484969 40 82 43
-0.353401 0.174001 2.482429 25 36 24
-0.421146 0.162767 2.489245 21 30 19
-0.416929 0.163474 2.484840 8 12 7
-0.362145 0.165079 2.483830 37 53 34
-0.461689 0.154168 2.488398 43 85 46
-0.452222 0.154890 2.483012 44 86 45
-0.442942 0.160665 2.483648 38 69 27
-0.431926 0.155077 2.488112 47 72 42
-0.423445 0.156450 2.483023 37 55 33
-0.382470 0.152817 2.485901 29 43 29
-0.373215 0.158027 2.485486 19 28 17
-0.440249 0.144693 2.488307 49 74 42
-0.433050 0.144861 2.483377 49 77 41
-0.427416 0.149779 2.483023 46 74 39
-0.414048 0.143465 2.487535 41 72 30
-0.407224 0.141363 2.481064 40 70 30
-0.394272 0.147499 2.488265 42 66 36
-0.379734 0.147153 2.486780 34 49 33
-0.351536 0.145608 2.485846 29 43 30
-0.448730 0.134262 2.488408 13 17 12
-0.442976 0.135200 2.485058 28 40 25
-0.437741 0.136062 2.481345 44 62 38
-0.422112 0.134308 2.487814 44 68 36
-0.412927 0.134953 2.482605 43 72 33
-0.372993 0.135012 2.485222 17 26 17
-0.363848 0.134083 2.484881 28 46 31
-0.353868 0.131821 2.485553 33 52 34
-0.344609 0.135295 2.485275 26 40 28
-0.442694 0.129171 2.484380 4 7 3
-0.423627 0.125139 2.484155 27 38 24
-0.417782 0.129642 2.483037 42 61 35
-0.382510 0.124752 2.483304 8 13 8
-0.373839 0.123837 2.484796 34 54 33
-0.362279 0.125375 2.484355 38 57 39
-0.356723 0.127440 2.480250 40 54 40
-0.347147 0.128273 2.481900 21 31 20
-0.422076 0.119889 2.486038 2 4 2
-0.392643 0.116328 2.485881 27 41 27
-0.382901 0.116858 2.485211 33 53 34
-0.373028 0.119073 2.485283 37 58 38
-0.363455 0.118545 2.485130 33 48 35
-0.356237 0.117093 2.481651 20 28 21
-0.400188 0.109754 2.483312 16 27 22
-0.394648 0.103556 2.480829 32 51 43
-0.384537 0.105044 2.486259 43 69 39
-0.373743 0.102209 2.483150 29 45 27
-0.393640 0.095794 2.485811 32 54 34
-0.384396 0.095928 2.482076 43 74 35
-0.355565 0.094060 2.484681 63 110 46
-0.401234 0.082749 2.483802 12 19 12
-0.394481 0.088230 2.482191 36 59 31
-0.372973 0.083727 2.485560 31 47 28
-0.362921 0.083533 2.485210 24 38 22
-0.355084 0.085564 2.483699 27 44 24
-0.398193 0.077755 2.487735 20 31 21
-0.391682 0.076536 2.485444 28 43 27
-0.383224 0.074970 2.484484 44 72 40
-0.373036 0.076747 2.484620 38 62 36
-0.363887 0.074176 2.483784 39 62 31
-0.340960 0.077937 2.484522 24 39 16
-0.401410 0.064129 2.487361 7 13 8
-0.393068 0.066200 2.486143 34 53 34
-0.382359 0.066544 2.484969 29 51 28
-0.373792 0.068300 2.484269 38 61 36
-0.364527 0.069831 2.480056 37 58 31
-0.349878 0.063787 2.484094 42 63 29
-0.337405 0.066804 2.485371 12 27 12
-0.399341 0.059160 2.481109 3 5 3
-0.394984 0.059624 2.485243 24 42 27
-0.383943 0.060615 2.482496 49 78 44
-0.352146 0.058087 2.483012 5 9 4
-0.346664 0.044358 2.486563 32 50 25
-0.336644 0.048648 2.482735 50 82 38
-1.003395 0.525770 2.492491 1 2 1
-0.992868 0.524042 2.492037 30 35 34
-0.982553 0.523997 2.494878 14 17 16
-0.973465 0.524765 2.497235 1 2 2
-0.998270 0.515192 2.494242 47 59 55
-0.992423 0.515894 2.494159 52 62 57
-0.982177 0.513883 2.493199 21 26 24
-0.973502 0.514818 2.495029 23 22 16
-0.960723 0.516427 2.492912 11 12 11
-0.953214 0.515316 2.495866 1 1 1
-0.944343 0.514788 2.495155 0 1 2
-0.934731 0.518579 2.497464 0 0 1
-1.005321 0.506424 2.494832 5 6 6
-0.990629 0.507657 2.494314 36 43 40
-0.982257 0.505557 2.494484 57 66 58
-0.971357 0.504169 2.494185 33 34 28
-0.962858 0.505760 2.494667 37 39 34
-0.953649 0.506939 2.495300 30 33 31
-0.943513 0.506068 2.495131 19 22 17
-0.925008 0.506145 2.499867 4 8 5
-0.915710 0.506031 2.494954 18 32 20
-0.998279 0.498456 2.497092 33 39 37
-0.993482 0.496073 2.493777 59 71 64
-0.985067 0.495771 2.494037 84 96 85
-0.971752 0.494628 2.493395 108 114 94
-0.962689 0.495406 2.495323 86 90 76
-0.952500 0.496011 2.495658 30 34 30
-0.943650 0.493658 2.493005 50 54 30
-0.933470 0.495672 2.493908 27 31 18
-0.925158 0.494573 2.493126 25 34 25
-0.913264 0.494974 2.494059 23 32 21
-0.906154 0.496765 2.496962 19 19 10
-1.000793 0.486366 2.490472 59 68 63
-0.994059 0.485950 2.494431 74 87 80
-0.982194 0.484526 2.494539 50 55 44
-0.971888 0.484792 2.493311 102 111 82
-0.962791 0.486171 2.496483 70 74 51
-0.952929 0.485421 2.495370 37 42 25
-0.942514 0.485141 2.494124 73 93 45
-0.932686 0.485354 2.495343 75 94 51
-0.922982 0.485683 2.494516 55 70 42
-0.912837 0.485717 2.495809 33 45 25
-0.901966 0.482345 2.496274 32 33 20
-1.001423 0.476158 2.491062 23 27 24
-0.991841 0.475274 2.495104 39 48 42
-0.982861 0.474949 2.493659 60 68 46
-0.972839 0.475516 2.495049 79 85 59
-0.962781 0.475828 2.495953 73 86 58
-0.952201 0.476131 2.494939 43 58 31
-0.942703 0.475675 2.496387 69 89 42
-0.932449 0.476356 2.494276 77 103 48
-0.924478 0.476693 2.495391 80 119 57
-0.909011 0.472815 2.494356 51 77 33
-0.902948 0.475451 2.496346 25 34 14
-0.998757 0.468483 2.493061 15 19 17
-0.992410 0.465051 2.495720 11 13 10
-0.983164 0.465258 2.496023 36 39 25
-0.973145 0.466129 2.495121 89 99 66
-0.962736 0.466451 2.495645 66 79 51
-0.953161 0.466219 2.495456 44 57 29
-0.944471 0.465219 2.494394 31 42 20
-0.932442 0.465482 2.496128 63 86 41
-0.926150 0.462085 2.492645 80 117 45
-1.014514 0.459450 2.490021 2 0 0
-1.002273 0.456163 2.495158 1 0 0
-0.991125 0.458158 2.493968 12 10 7
-0.982474 0.456609 2.495522 19 25 13
-0.971873 0.456322 2.495537 38 48 26
-0.961680 0.454518 2.496207 72 84 46
-0.950103 0.456164 2.493861 46 63 28
-0.941253 0.457520 2.495502 36 45 23
-0.932236 0.456494 2.495107 28 37 23
-0.925220 0.456792 2.494760 64 86 47
-0.979677 0.446520 2.496714 23 21 13
-0.970681 0.449581 2.497667 23 30 16
-0.963650 0.446254 2.494465 33 48 28
-0.952450 0.444210 2.496894 53 83 44
-0.943052 0.447221 2.498157 58 88 45
-0.932342 0.444661 2.495723 6 7 8
-0.921234 0.444411 2.493098 19 27 12
-0.914807 0.444941 2.495275 49 68 31
-0.944011 0.433101 2.490126 54 86 45
-0.932111 0.434171 2.492829 31 50 26
-0.920761 0.438255 2.497590 24 40 21
-0.915989 0.435751 2.494929 23 23 10
-0.949797 0.424553 2.492311 51 79 47
-0.942037 0.425227 2.494389 51 78 46
-0.934277 0.428493 2.495097 26 39 23
-0.969360 0.413739 2.493839 5 8 5
-0.964422 0.415203 2.492044 21 31 21
-0.955624 0.414099 2.496483 47 66 42
-0.946488 0.418339 2.498677 44 70 40
-0.967403 0.407750 2.498863 3 3 3
-0.951050 0.406308 2.496467 12 24 13
-0.939918 0.402121 2.499899 37 57 35
-0.914307 0.397424 2.496188 28 46 27
-0.903543 0.394477 2.495334 4 6 5
-0.931979 0.387264 2.493444 52 85 50
-0.923623 0.383583 2.497066 55 91 50
-0.933687 0.370844 2.491050 50 83 54
-0.919834 0.373663 2.491963 31 49 36
-0.907881 0.374473 2.490208 2 4 2
-0.954648 0.361040 2.491102 5 11 8
-0.941591 0.363256 2.496314 25 47 32
-0.932215 0.361573 2.496345 42 76 49
-0.922252 0.365946 2.495617 42 72 50
-0.912707 0.369879 2.494313 20 34 25
-0.907822 0.363702 2.493484 11 21 15
-0.937948 0.356017 2.499202 23 45 31
-0.924372 0.358541 2.499696 44 79 50
-0.912117 0.359671 2.498349 33 59 43
-0.903463 0.357241 2.497386 14 26 19
-0.900818 0.348942 2.498853 17 28 21
-0.501622 0.210719 2.492805 30 63 37
-0.495246 0.201240 2.490022 28 64 35
-0.491972 0.192647 2.494786 30 69 36
-0.484175 0.182973 2.493385 39 80 44
-0.476581 0.173343 2.491803 42 84 45
-0.364221 0.173322 2.494366 24 35 22
-0.460685 0.162278 2.492999 43 85 43
-0.428887 0.164521 2.495288 32 43 31
-0.425006 0.168145 2.494781 11 14 11
-0.388736 0.166236 2.498957 7 12 6
-0.381574 0.164404 2.494771 7 11 8
-0.369270 0.167704 2.492367 35 54 32
-0.471139 0.156197 2.495032 43 85 46
-0.448299 0.152415 2.498755 51 79 45
-0.442498 0.158334 2.495801 44 73 37
-0.435997 0.157412 2.493075 46 70 43
-0.399222 0.151030 2.494301 43 65 35
-0.389808 0.158165 2.495012 30 42 27
-0.378191 0.158614 2.493953 39 60 36
-0.453119 0.145609 2.498188 47 68 43
-0.444679 0.146981 2.493027 50 77 45
-0.428233 0.141392 2.497345 45 75 35
-0.422658 0.146072 2.496552 42 73 31
-0.407810 0.144522 2.494291 44 69 33
-0.395248 0.141150 2.496449 15 24 14
-0.384749 0.145634 2.497424 29 41 26
-0.373611 0.140745 2.495364 20 35 22
-0.360356 0.150355 2.496943 32 44 32
-0.354032 0.143942 2.492025 38 58 39
-0.454161 0.137386 2.495052 14 21 13
-0.446992 0.140584 2.490515 42 60 39
-0.431525 0.136003 2.495983 44 67 39
-0.423867 0.136247 2.494097 39 60 33
-0.390337 0.130891 2.495969 11 18 11
-0.377920 0.138115 2.492171 21 29 18
-0.375141 0.136885 2.496154 40 58 37
-0.365359 0.136168 2.495321 34 55 35
-0.353414 0.139668 2.496131 32 45 34
-0.430229 0.125651 2.494830 11 16 11
-0.427063 0.129937 2.499688 7 10 6
-0.399680 0.122048 2.493700 28 43 27
-0.395521 0.122169 2.495978 24 39 29
-0.383386 0.124273 2.494415 35 56 36
-0.372198 0.124278 2.496085 30 44 30
-0.363753 0.124987 2.491431 19 30 20
-0.402542 0.117376 2.496522 33 49 35
-0.393621 0.114917 2.494980 36 51 38
-0.383761 0.113213 2.493437 27 39 33
-0.364019 0.120507 2.493302 13 19 15
-0.409823 0.109984 2.499609 37 60 44
-0.402135 0.104049 2.495476 37 61 40
-0.391342 0.108206 2.497129 35 55 36
-0.383197 0.107713 2.493802 28 41 26
-0.370045 0.102181 2.490244 7 11 7
-0.401478 0.095476 2.494788 33 57 30
-0.393988 0.098237 2.491881 41 72 33
-0.363201 0.092516 2.493644 26 47 24
-0.411704 0.085957 2.496574 9 13 8
-0.404911 0.086533 2.495504 26 41 24
-0.393011 0.081927 2.497890 42 67 36
-0.382185 0.084893 2.495980 41 61 38
-0.373614 0.085263 2.493309 29 44 26
-0.365881 0.086639 2.491041 42 69 37
-0.356474 0.086674 2.495841 60 95 52
-0.402380 0.075422 2.496009 26 39 25
-0.392879 0.076549 2.493887 42 68 40
-0.383415 0.076479 2.494775 43 70 38
-0.373949 0.077295 2.494275 33 55 30
-0.365909 0.073179 2.494362 66 102 36
-0.350411 0.076009 2.493906 53 79 30
-0.342258 0.080366 2.495595 11 17 6
-0.409740 0.064070 2.496581 2 3 2
-0.402186 0.066816 2.496076 28 46 29
-0.392199 0.067005 2.494982 37 66 39
-0.383275 0.068423 2.492950 39 64 33
-0.351978 0.063884 2.493981 42 67 28
-0.342493 0.069322 2.496598 8 20 9
-0.352751 0.057818 2.494027 6 11 4
-0.348511 0.045381 2.495809 34 56 28
-0.338718 0.049767 2.491721 50 83 38
-0.971369 0.528039 2.504384 0 0 1
-0.962880 0.525113 2.507203 1 1 1
-0.954441 0.521002 2.504577 0 0 0
-0.983785 0.515510 2.504271 82 100 83
-0.972849 0.516277 2.504214 21 28 22
-0.962956 0.512420 2.504091 9 11 9
-0.957205 0.515518 2.504185 1 0 0
-0.934867 0.511689 2.500904 1 1 1
-0.998639 0.504123 2.503036 9 12 10
-0.990952 0.503922 2.503508 40 53 43
-0.982065 0.504568 2.505347 36 44 37
-0.973171 0.505677 2.505189 75 90 80
-0.963282 0.507763 2.505430 15 18 13
-0.953629 0.504611 2.507253 12 12 9
-0.943869 0.505288 2.503403 17 19 19
-0.932604 0.502389 2.503666 11 11 13
-0.917418 0.503883 2.508392 4 4 4
-0.907277 0.505038 2.501957 12 18 14
-0.999508 0.494518 2.505947 1 1 1
-0.990272 0.492386 2.502732 32 40 37
-0.981835 0.495418 2.504666 21 27 24
-0.973404 0.494947 2.503832 99 119 104
-0.960225 0.495587 2.503312 66 70 58
-0.952267 0.494960 2.503445 84 91 80
-0.943268 0.496115 2.505068 38 45 38
-0.931796 0.496241 2.505599 29 37 35
-0.922143 0.493131 2.502164 10 11 7
-0.913762 0.492570 2.505775 11 14 10
-0.904164 0.495295 2.503183 40 61 47
-0.893304 0.491294 2.504056 47 61 39
-0.989801 0.483006 2.500054 118 132 125
-0.983353 0.485010 2.505078 79 94 89
-0.972893 0.483405 2.504786 61 76 62
-0.961614 0.485230 2.504040 90 101 74
-0.952464 0.485766 2.505022 67 73 45
-0.944353 0.484441 2.505420 33 38 21
-0.932307 0.484074 2.502441 55 71 35
-0.922489 0.484477 2.505673 46 62 35
-0.913820 0.484946 2.504896 35 46 32
-0.903555 0.484251 2.504642 41 51 31
-0.892920 0.484865 2.506246 45 52 26
-0.989419 0.476784 2.502702 50 62 58
-0.982435 0.474916 2.504423 49 58 52
-0.972588 0.474857 2.504638 54 64 45
-0.962724 0.475815 2.505102 79 94 54
-0.952724 0.475237 2.505027 64 81 43
-0.942899 0.474606 2.504292 43 61 29
-0.932377 0.476181 2.504915 69 97 44
-0.924422 0.475972 2.505348 71 100 48
-0.914438 0.476994 2.505383 64 96 48
-0.901418 0.475341 2.506688 43 61 26
-0.892484 0.477237 2.506847 28 44 32
-0.992947 0.465920 2.504544 5 7 6
-0.981093 0.466322 2.505209 23 30 25
-0.972278 0.465578 2.505227 61 71 44
-0.962625 0.465132 2.505159 78 97 52
-0.953132 0.465447 2.504563 62 81 42
-0.942860 0.465846 2.505639 37 52 26
-0.933255 0.466005 2.506388 50 72 36
-0.923625 0.465008 2.506170 70 108 47
-0.914698 0.466769 2.504476 71 115 52
-0.892376 0.469847 2.502363 1 3 4
-0.883418 0.469661 2.508384 6 10 7
-0.992712 0.456447 2.502326 0 1 0
-0.982383 0.455318 2.503644 7 9 4
-0.972866 0.454641 2.505285 29 40 19
-0.962310 0.455797 2.506204 48 63 31
-0.954272 0.456461 2.506769 64 86 41
-0.943148 0.456321 2.505009 25 32 18
-0.931398 0.457203 2.504338 43 55 30
-0.923582 0.455592 2.504972 52 78 38
-0.914357 0.453839 2.505482 79 121 47
-0.980658 0.447074 2.506067 1 1 1
-0.974195 0.448667 2.505279 7 11 5
-0.964023 0.447442 2.505225 25 29 15
-0.945041 0.447171 2.504864 34 43 23
-0.931803 0.445852 2.504322 41 57 30
-0.924598 0.448132 2.506302 32 42 29
-0.910028 0.443193 2.502557 73 100 45
-0.907378 0.441474 2.506880 74 101 46
-0.960083 0.436250 2.506067 18 20 10
-0.952415 0.435576 2.504206 33 52 30
-0.940622 0.434993 2.508164 50 86 41
-0.924216 0.435734 2.503611 28 44 33
-0.914043 0.434385 2.505059 33 37 18
-0.902079 0.437929 2.508427 3 5 3
-0.951210 0.429432 2.509189 17 30 19
-0.931825 0.423779 2.500859 43 70 38
-0.922769 0.425915 2.503942 22 38 21
-0.912480 0.424810 2.508820 2 3 2
-0.959888 0.411139 2.500370 4 6 7
-0.952908 0.416162 2.506730 8 15 9
-0.944455 0.412095 2.503859 62 87 51
-0.934388 0.416479 2.505529 54 84 48
-0.927110 0.419205 2.507738 49 69 41
-0.959021 0.407261 2.502259 10 15 8
-0.950937 0.406541 2.505422 32 44 27
-0.941407 0.407002 2.509752 55 73 45
-0.931402 0.400803 2.503937 50 78 47
-0.958007 0.400510 2.506525 4 7 4
-0.951413 0.399063 2.504766 11 15 9
-0.944021 0.397182 2.503988 10 16 10
-0.936543 0.394466 2.506363 23 38 25
-0.925738 0.394762 2.507988 56 92 48
-0.909211 0.393424 2.502279 31 51 32
-0.902511 0.391826 2.504145 17 30 18
-0.943791 0.385299 2.505444 3 6 4
-0.931363 0.388665 2.505073 35 61 41
-0.925301 0.384050 2.505193 49 78 51
-0.912733 0.382361 2.501500 45 75 43
-0.902729 0.387767 2.500882 11 21 13
-0.896013 0.386193 2.502776 3 8 4
-0.929352 0.379165 2.509361 24 38 25
-0.921140 0.377153 2.507590 48 74 48
-0.913187 0.375991 2.506209 54 88 50
-0.903646 0.375879 2.504505 34 58 35
-0.893281 0.375798 2.505561 10 19 11
-0.917342 0.369762 2.509404 47 76 48
-0.899105 0.365418 2.509171 41 69 44
-0.892338 0.366346 2.505977 17 30 20
-0.942420 0.351804 2.503846 4 10 6
-0.931330 0.351671 2.500814 33 61 39
-0.917657 0.354311 2.501455 44 78 50
-0.903052 0.357012 2.508286 45 74 49
-0.884727 0.355586 2.507802 11 19 14
-0.932963 0.344781 2.505597 15 28 19
-0.923667 0.348444 2.503904 41 72 47
-0.914526 0.346525 2.503616 42 72 48
-0.906170 0.343769 2.502218 37 64 43
-0.922142 0.339220 2.509276 32 51 38
-0.913806 0.336437 2.507843 40 66 47
-0.900752 0.338148 2.502138 34 57 39
-0.895059 0.333896 2.505714 48 81 52
-0.905904 0.322311 2.508997 41 69 48
-0.893076 0.325908 2.506097 47 78 51
-0.883326 0.322819 2.500336 31 51 37
-0.902198 0.314829 2.506479 40 71 46
-0.888665 0.311020 2.508013 48 79 49
-0.883067 0.314118 2.502796 40 67 45
-0.870112 0.318598 2.509194 19 36 24
-0.900172 0.305822 2.507064 38 68 42
-0.882626 0.305883 2.505749 45 76 43
-0.897909 0.297062 2.507983 41 68 42
-0.883284 0.294819 2.505806 44 79 43
-0.894925 0.277837 2.507625 35 55 36
-0.505158 0.211858 2.505195 26 60 34
-0.492345 0.201185 2.503320 24 60 33
-0.494075 0.193369 2.503278 34 73 40
-0.491618 0.184914 2.507247 45 85 47
-0.486883 0.183789 2.501291 42 82 46
-0.480343 0.174727 2.509182 45 87 47
-0.473895 0.173344 2.504887 44 86 46
-0.439169 0.171848 2.507815 30 46 30
-0.432830 0.172851 2.504902 14 22 15
-0.426561 0.173845 2.501948 4 5 4
-0.370705 0.176514 2.502306 22 34 21
-0.484990 0.167362 2.506337 44 88 45
-0.472003 0.164796 2.503078 44 86 44
-0.452586 0.163582 2.508251 47 77 38
-0.445212 0.163180 2.504002 45 73 37
-0.436980 0.166232 2.501096 40 59 40
-0.401804 0.166020 2.503998 14 22 14
-0.395046 0.161462 2.500793 28 43 24
-0.384591 0.161867 2.501818 38 62 34
-0.376390 0.170320 2.500897 34 54 31
-0.482803 0.158764 2.504804 41 81 43
-0.454469 0.155428 2.504864 53 82 43
-0.446759 0.158689 2.500715 50 77 45
-0.413473 0.154791 2.506317 44 68 37
-0.404071 0.154633 2.500416 43 65 35
-0.393236 0.153017 2.503169 36 55 33
-0.366095 0.152993 2.506278 37 51 38
-0.463475 0.146942 2.506157 33 49 28
-0.442502 0.145835 2.509874 48 77 37
-0.433636 0.146273 2.504349 44 75 34
-0.423027 0.143932 2.504026 44 65 37
-0.412684 0.148114 2.500396 44 69 35
-0.401379 0.144622 2.504069 16 25 15
-0.383519 0.144650 2.507051 32 47 31
-0.373205 0.141057 2.505931 34 56 36
-0.361393 0.144894 2.505107 33 47 34
-0.463569 0.137875 2.501079 3 6 4
-0.443075 0.136215 2.507277 23 36 21
-0.434547 0.135460 2.503689 23 36 21
-0.427597 0.136830 2.502300 29 42 26
-0.413932 0.131873 2.509347 23 34 23
-0.398133 0.136992 2.508581 19 28 18
-0.391064 0.134060 2.504833 32 51 31
-0.374093 0.136553 2.504721 38 55 37
-0.366759 0.135793 2.503618 23 36 24
-0.420490 0.123197 2.505464 8 15 11
-0.411208 0.126366 2.506118 26 39 25
-0.402817 0.125217 2.504273 30 47 33
-0.393554 0.125358 2.503266 30 51 36
-0.383478 0.128378 2.504495 35 55 34
-0.376359 0.127103 2.503452 19 28 19
-0.416232 0.114997 2.505873 33 51 39
-0.403095 0.117671 2.505867 37 54 38
-0.393688 0.114455 2.504533 26 39 31
-0.411956 0.103933 2.508113 37 61 33
-0.404496 0.105704 2.505877 43 71 38
-0.397146 0.110141 2.503904 46 70 46
-0.382194 0.108284 2.504321 10 14 9
-0.412462 0.094463 2.503981 31 51 28
-0.404290 0.095342 2.505089 29 47 28
-0.390675 0.091645 2.507063 39 57 34
-0.383509 0.093495 2.504935 15 23 13
-0.371867 0.094364 2.502650 26 45 22
-0.367420 0.096034 2.501110 21 36 19
-0.418073 0.082924 2.509310 9 17 9
-0.411667 0.084235 2.504374 20 30 18
-0.403500 0.083695 2.505266 40 62 35
-0.393428 0.085410 2.504836 41 67 37
-0.382929 0.085933 2.505108 31 48 28
-0.375942 0.087260 2.502300 18 28 16
-0.419045 0.071489 2.509958 10 17 12
-0.410580 0.075257 2.506268 27 40 26
-0.402188 0.075686 2.506116 40 64 37
-0.392354 0.074658 2.504893 33 54 30
-0.382607 0.078187 2.504021 43 69 38
-0.369660 0.073683 2.503021 68 103 36
-0.355127 0.075927 2.505203 31 49 19
-0.344389 0.080609 2.501623 11 17 6
-0.412473 0.066845 2.504521 15 23 15
-0.402896 0.068705 2.505292 41 64 41
-0.354523 0.064091 2.503526 41 66 27
-0.356925 0.058289 2.506168 5 10 3
-0.360477 0.042155 2.508772 9 19 8
-0.350476 0.046455 2.504913 37 62 30
-0.963107 0.514863 2.512143 16 21 20
-0.954694 0.514675 2.513090 6 9 6
-0.829574 0.511327 2.519263 3 8 4
-0.973256 0.502925 2.516426 107 131 110
-0.961802 0.505909 2.513011 36 46 39
-0.952464 0.503326 2.516047 28 31 21
-0.937255 0.504170 2.513148 1 0 0
-0.822166 0.508241 2.517905 10 21 13
-0.991578 0.498217 2.511940 7 12 8
-0.982229 0.496950 2.514412 17 25 19
-0.973859 0.494282 2.514281 35 43 36
-0.962203 0.498057 2.517061 76 95 80
-0.951273 0.495991 2.514506 38 43 26
-0.943711 0.495180 2.513783 29 36 21
-0.933735 0.494964 2.514533 21 29 20
-0.926073 0.496535 2.513700 10 12 6
-0.913734 0.496643 2.518741 1 1 0
-0.904734 0.495127 2.519665 5 9 7
-0.891165 0.494346 2.513036 34 52 39
-0.881961 0.494518 2.518641 26 41 30
-0.824625 0.497017 2.517942 40 75 52
-0.992630 0.490369 2.512754 1 1 3
-0.982924 0.486839 2.515850 18 25 19
-0.971354 0.485866 2.513599 20 27 23
-0.963467 0.483626 2.513347 52 72 49
-0.951540 0.485363 2.512925 74 89 50
-0.942193 0.485387 2.514915 58 68 35
-0.935213 0.485322 2.517163 45 57 34
-0.921380 0.485616 2.515236 39 50 31
-0.913331 0.484613 2.515046 29 37 27
-0.903556 0.483912 2.515161 21 25 16
-0.892965 0.483032 2.513467 31 29 15
-0.883808 0.483515 2.514870 54 69 43
-0.834502 0.488855 2.519383 53 91 67
-0.982474 0.474986 2.511369 29 35 33
-0.973543 0.475386 2.513245 49 61 52
-0.961765 0.476100 2.515111 48 62 38
-0.951740 0.476275 2.514580 69 90 44
-0.944165 0.475839 2.516077 62 80 37
-0.933961 0.474493 2.514005 43 62 36
-0.922099 0.474760 2.513983 72 105 47
-0.913986 0.475577 2.515231 61 86 44
-0.904154 0.476588 2.517058 39 54 28
-0.892156 0.476217 2.514972 41 50 25
-0.882117 0.477969 2.514729 43 58 36
-0.872157 0.476119 2.515877 49 67 42
-0.861324 0.475770 2.518059 40 63 43
-0.852268 0.475454 2.518811 39 63 44
-0.842942 0.475525 2.519097 35 57 42
-0.979948 0.465358 2.512682 16 23 18
-0.971027 0.466180 2.514210 41 47 34
-0.962544 0.467500 2.515333 58 79 39
-0.953073 0.465405 2.513761 78 107 46
-0.942921 0.464973 2.514030 62 86 44
-0.932396 0.465995 2.515306 43 63 30
-0.923793 0.465709 2.515631 69 100 44
-0.913105 0.465950 2.515839 57 88 40
-0.903260 0.466172 2.514634 69 111 50
-0.893715 0.467589 2.516843 54 78 34
-0.873262 0.466400 2.512805 7 11 7
-0.865788 0.469579 2.519738 35 34 18
-0.853566 0.465974 2.516824 6 13 8
-0.979244 0.455044 2.512820 3 4 2
-0.970657 0.456175 2.514848 14 19 10
-0.962526 0.456767 2.514980 49 65 31
-0.953212 0.456110 2.515685 61 85 38
-0.943433 0.457130 2.515858 53 78 38
-0.933334 0.456751 2.515633 35 49 27
-0.923572 0.455462 2.515267 47 68 36
-0.914017 0.457366 2.517657 57 90 42
-0.904709 0.456719 2.518091 72 120 57
-0.972282 0.447573 2.513152 9 11 6
-0.962996 0.444894 2.515871 22 29 15
-0.953050 0.446372 2.515834 47 62 31
-0.944106 0.448394 2.516172 44 56 29
-0.932720 0.448352 2.516354 28 31 21
-0.922694 0.446609 2.515368 34 48 35
-0.912282 0.446860 2.513423 33 52 23
-0.904120 0.444500 2.516253 53 82 33
-0.896844 0.441160 2.519974 83 121 52
-0.978054 0.440341 2.510168 2 2 1
-0.970001 0.437042 2.517567 0 2 3
-0.961924 0.437078 2.516514 21 22 11
-0.932641 0.434912 2.511122 51 93 44
-0.922732 0.437180 2.514093 38 61 32
-0.912237 0.434760 2.515549 50 56 28
-0.905017 0.436250 2.513876 59 78 36
-0.896306 0.433552 2.517100 84 111 52
-0.943517 0.428627 2.511389 35 62 34
-0.931860 0.427719 2.515001 47 88 45
-0.919837 0.427740 2.519581 50 88 49
-0.913152 0.424182 2.511883 43 70 40
-0.901518 0.427291 2.517048 47 53 28
-0.940858 0.416171 2.511304 32 56 33
-0.934486 0.412089 2.510082 45 78 46
-0.922792 0.415592 2.514499 55 85 47
-0.912795 0.417323 2.515676 28 43 25
-0.941604 0.405674 2.514939 25 37 22
-0.931615 0.405988 2.516634 48 71 41
-0.921143 0.408947 2.519408 59 84 50
-0.952380 0.393855 2.512827 5 8 4
-0.938569 0.394165 2.518920 29 44 21
-0.931738 0.386491 2.510720 27 44 27
-0.922027 0.384809 2.510566 56 92 50
-0.932469 0.375543 2.515029 3 6 3
-0.924493 0.373763 2.514495 28 48 29
-0.911863 0.370881 2.512070 58 90 53
-0.921693 0.365831 2.514109 28 46 30
-0.913221 0.364070 2.513765 44 72 47
-0.905763 0.366025 2.510065 55 88 52
-0.881032 0.366805 2.510073 3 4 3
-0.923051 0.356797 2.516788 7 14 10
-0.911479 0.356624 2.517334 38 63 41
-0.901374 0.357702 2.514373 55 90 53
-0.893035 0.355602 2.511675 38 64 42
-0.883473 0.355008 2.512054 20 32 23
-0.920133 0.342053 2.517735 4 8 5
-0.903946 0.347219 2.514232 45 74 48
-0.897818 0.347262 2.516502 51 86 52
-0.882248 0.346408 2.512237 23 39 27
-0.875091 0.342896 2.511169 9 16 11
-0.926311 0.335323 2.514343 6 12 9
-0.915633 0.335276 2.515330 11 20 13
-0.902686 0.333238 2.516300 32 55 35
-0.892955 0.339131 2.511088 40 70 44
-0.886760 0.334666 2.511397 35 64 41
-0.872882 0.340109 2.513415 11 18 13
-0.866495 0.335921 2.514046 7 11 8
-0.920437 0.330182 2.514904 13 24 19
-0.912157 0.327338 2.513387 30 51 39
