ply
format ascii 1.0
element vertex 1288
property float x
property float y
property float z
property uchar red
property uchar green
property uchar blue
end_header
-0.136598 0.118380 1.876527 35 50 17
-0.088639 0.114848 1.872170 70 101 30
-0.082747 0.113263 1.874232 59 82 23
-0.076925 0.111035 1.876844 46 61 19
-0.194158 0.103028 1.876464 49 41 21
-0.183154 0.100771 1.871703 24 38 12
-0.170076 0.103532 1.871689 58 97 32
-0.161448 0.106348 1.870650 66 112 39
-0.128018 0.101580 1.876964 36 38 13
-0.121107 0.106960 1.875417 8 9 4
-0.115605 0.100781 1.876261 23 31 9
-0.072414 0.109198 1.873566 22 30 8
-0.192986 0.095930 1.875030 52 53 21
-0.147455 0.099635 1.879827 38 56 14
-0.137110 0.092197 1.877332 38 33 15
-0.120453 0.093593 1.877993 27 37 8
-0.188322 0.089024 1.874797 51 54 19
-0.187334 0.082366 1.876370 61 78 28
-0.139883 0.082308 1.877694 37 33 16
-0.126346 0.083651 1.875656 33 44 16
-0.113912 0.085292 1.877272 47 63 20
-0.188927 0.076376 1.875657 75 101 40
-0.159302 0.078120 1.872509 67 112 37
-0.123788 0.077865 1.873585 42 58 14
-0.112095 0.071670 1.871912 67 91 26
-0.064489 0.074091 1.877342 24 31 14
-0.192064 0.067576 1.873929 67 96 35
-0.175483 0.065674 1.878963 4 6 2
-0.161961 0.067133 1.876469 28 43 15
-0.154509 0.062393 1.873939 31 40 11
-0.143499 0.062046 1.874517 61 86 21
-0.122184 0.064871 1.874363 41 63 15
-0.114752 0.062871 1.875889 21 26 15
-0.101616 0.064626 1.876662 27 26 12
-0.091125 0.067423 1.876917 2 2 2
-0.081741 0.063686 1.876234 28 31 16
-0.062315 0.067032 1.876855 24 25 12
-0.193888 0.058434 1.873361 50 71 21
-0.170731 0.050968 1.870380 24 28 17
-0.161839 0.051130 1.872281 19 30 9
-0.150843 0.058529 1.876438 51 69 19
-0.143015 0.056488 1.874143 64 95 21
-0.132453 0.055128 1.873291 60 87 26
-0.122288 0.054871 1.873772 52 72 23
-0.110032 0.056108 1.873819 32 40 13
-0.102351 0.053807 1.876017 34 41 17
-0.092799 0.053225 1.874930 28 32 12
-0.082046 0.053540 1.873783 43 54 18
-0.068362 0.060367 1.871475 20 21 9
-0.174320 0.043644 1.873709 45 62 27
-0.152427 0.049221 1.877533 46 74 21
-0.140911 0.046715 1.875114 45 55 18
-0.132851 0.043901 1.874503 43 52 20
-0.122257 0.045527 1.875622 52 67 22
-0.112487 0.044946 1.875410 53 74 26
-0.103262 0.046044 1.874953 52 71 25
-0.091283 0.046961 1.873881 49 62 21
-0.081925 0.044457 1.875504 32 32 15
-0.072742 0.047431 1.873133 21 21 9
-0.062610 0.045390 1.878278 21 24 14
-0.179923 0.032951 1.873978 60 94 32
-0.168479 0.034570 1.876462 60 93 38
-0.141629 0.033965 1.875107 46 65 18
-0.132297 0.036725 1.874977 61 82 27
-0.121689 0.035096 1.875757 63 93 27
-0.113013 0.036361 1.874914 57 83 25
-0.102000 0.034262 1.874628 60 86 29
-0.092737 0.034665 1.875630 59 79 28
-0.084237 0.035715 1.874256 34 41 14
-0.075323 0.035429 1.875418 19 20 8
-0.065805 0.040027 1.871048 5 6 3
-0.178882 0.024941 1.879187 20 24 7
-0.172683 0.023643 1.874632 34 50 21
-0.163100 0.026307 1.874630 48 67 21
-0.153549 0.027181 1.876162 33 42 13
-0.142346 0.025561 1.874371 48 69 18
-0.131619 0.025526 1.875388 49 72 17
-0.121874 0.024863 1.874878 56 85 23
-0.112579 0.025875 1.875482 59 88 25
-0.102809 0.024555 1.874445 59 85 26
-0.092612 0.025109 1.875308 56 78 26
-0.083196 0.026924 1.875795 40 52 17
-0.074220 0.027482 1.876492 28 27 13
-0.064581 0.027761 1.872863 27 24 13
-0.182102 0.015695 1.874865 19 24 11
-0.171797 0.016434 1.875259 33 47 14
-0.163197 0.015176 1.874769 34 43 15
-0.152915 0.014771 1.875612 52 68 24
-0.142415 0.015527 1.874078 53 75 21
-0.133027 0.015297 1.875951 42 64 13
-0.122595 0.014498 1.874844 44 69 16
-0.112374 0.015392 1.875019 55 80 24
-0.102453 0.016044 1.875079 61 87 27
-0.092618 0.016832 1.874501 54 72 25
-0.082949 0.016335 1.874834 40 46 13
-0.072919 0.017978 1.872950 37 48 14
-0.063314 0.018565 1.876235 41 50 15
-0.052861 0.015507 1.873526 27 26 9
-0.181979 0.003479 1.876435 18 23 10
-0.170640 0.004576 1.876580 29 34 13
-0.162672 0.005188 1.875047 40 47 18
-0.152891 0.005564 1.875787 51 69 23
-0.142560 0.004744 1.875016 55 83 25
-0.132704 0.005151 1.874823 44 69 15
-0.122354 0.007409 1.874270 41 64 13
-0.113722 0.006576 1.874420 51 75 18
-0.104032 0.008063 1.876056 62 92 27
-0.093952 0.009108 1.873393 56 77 22
-0.083514 0.008594 1.875038 59 65 23
-0.076575 0.005641 1.872509 41 42 13
-0.179881 -0.005035 1.874341 17 14 10
-0.171711 -0.004659 1.874739 17 18 8
-0.161836 -0.004433 1.875547 28 31 12
-0.152186 -0.005139 1.875277 45 58 19
-0.143491 -0.004260 1.875031 59 82 24
-0.133988 -0.003830 1.874556 57 82 23
-0.123158 -0.005073 1.875777 50 76 15
-0.112699 -0.002685 1.875571 50 75 19
-0.102995 -0.003910 1.873613 59 83 23
-0.083262 -0.003243 1.872725 44 49 26
-0.076558 -0.006731 1.870876 58 56 22
-0.171662 -0.010004 1.878142 1 2 3
-0.162897 -0.013165 1.874346 27 27 11
-0.153475 -0.011853 1.876047 36 44 17
-0.144208 -0.014041 1.875707 44 57 18
-0.134768 -0.013911 1.875213 55 78 21
-0.123668 -0.014522 1.875391 55 77 24
-0.114714 -0.015668 1.874792 48 72 18
-0.103381 -0.013648 1.876617 44 49 24
-0.093682 -0.013382 1.875687 49 68 25
-0.181319 -0.023180 1.877531 47 41 23
-0.162432 -0.023948 1.875457 17 22 9
-0.150395 -0.021176 1.871928 38 50 18
-0.142548 -0.025431 1.871890 46 61 21
-0.135319 -0.026507 1.875731 54 77 19
-0.124054 -0.028140 1.870294 42 80 16
-0.108861 -0.024076 1.873555 52 84 27
-0.103215 -0.021396 1.877050 43 67 36
-0.091009 -0.021526 1.872294 30 45 15
-0.080860 -0.019344 1.870580 40 46 18
-0.152702 -0.035038 1.874287 65 92 24
-0.143212 -0.029373 1.879305 66 96 26
-0.102867 -0.030402 1.877637 41 55 34
-0.095941 -0.037566 1.878752 40 59 19
-0.086391 -0.030849 1.877272 10 13 5
-0.146999 -0.043883 1.875935 68 98 24
-0.105819 -0.041558 1.879212 25 28 21
-0.142004 -0.050055 1.872805 61 89 17
-0.080558 -0.056091 1.878986 22 28 10
-0.109503 0.223351 1.886683 11 18 15
-0.091497 0.217287 1.884163 24 36 25
-0.135762 0.124092 1.884963 44 73 22
-0.155031 0.117774 1.886080 60 103 32
-0.143948 0.119383 1.887038 13 21 8
-0.082091 0.115909 1.885538 56 78 24
-0.073806 0.114631 1.884927 30 39 13
-0.194739 0.102848 1.884171 28 23 12
-0.179420 0.100869 1.885369 39 61 21
-0.170873 0.104538 1.883424 60 99 33
-0.162263 0.107518 1.882207 67 112 37
-0.149900 0.107729 1.883835 20 31 8
-0.144571 0.108444 1.885108 51 82 24
-0.128882 0.102131 1.884514 34 37 13
-0.120785 0.109543 1.881213 11 12 6
-0.117413 0.103102 1.885691 39 49 15
-0.205894 0.098806 1.881732 62 96 29
-0.192358 0.097136 1.886179 33 41 14
-0.143045 0.099616 1.881667 53 83 24
-0.114810 0.100649 1.881119 16 23 7
-0.189273 0.086705 1.885145 52 60 21
-0.140272 0.086836 1.889873 44 38 19
-0.127091 0.084510 1.882939 41 52 18
-0.115738 0.083987 1.886569 50 69 20
-0.192308 0.074582 1.886596 72 101 39
-0.163730 0.075903 1.884507 66 109 36
-0.122567 0.075508 1.883416 60 83 18
-0.107168 0.072472 1.883237 23 18 11
-0.090269 0.076147 1.889508 6 9 5
-0.083167 0.071194 1.882897 63 73 30
-0.063427 0.073344 1.886506 32 36 17
-0.194338 0.066673 1.882995 64 92 33
-0.163384 0.067812 1.884743 10 14 6
-0.151811 0.062473 1.887616 53 70 17
-0.144585 0.062100 1.882237 63 88 24
-0.128785 0.062073 1.883556 56 88 21
-0.122902 0.064836 1.884616 38 57 18
-0.115888 0.064589 1.883472 40 46 19
-0.100130 0.064104 1.887582 13 15 7
-0.091828 0.066577 1.888493 13 12 6
-0.084152 0.063641 1.884686 28 32 16
-0.062225 0.064480 1.884468 28 29 13
-0.196175 0.058554 1.883672 49 66 22
-0.179901 0.053143 1.882247 8 11 5
-0.170960 0.051449 1.881122 15 19 9
-0.163537 0.055219 1.880720 25 38 11
-0.151889 0.058890 1.883990 50 68 20
-0.145762 0.057232 1.885851 64 95 25
-0.134476 0.058608 1.884380 70 105 27
-0.123320 0.059054 1.884611 47 72 15
-0.111497 0.054593 1.884260 37 48 22
-0.103137 0.054757 1.885289 27 33 14
-0.093648 0.054282 1.886287 32 36 15
-0.084249 0.056314 1.884161 42 46 22
-0.075993 0.053365 1.884699 44 46 16
-0.179936 0.045099 1.884002 39 56 24
-0.153485 0.049877 1.889776 49 78 21
-0.132845 0.044369 1.884509 58 83 27
-0.122904 0.045809 1.884846 56 75 25
-0.113291 0.045647 1.885606 48 68 26
-0.103090 0.046201 1.884968 50 69 23
-0.091621 0.044551 1.882936 46 56 23
-0.082694 0.044315 1.884580 31 32 15
-0.075249 0.043582 1.885967 21 20 9
-0.065224 0.046203 1.886776 8 9 5
-0.182067 0.035166 1.883436 59 93 33
-0.170341 0.035282 1.885394 60 95 39
-0.158967 0.031073 1.889966 43 59 15
-0.157025 0.033544 1.880359 15 10 7
-0.142971 0.034671 1.884670 47 66 18
-0.133825 0.035730 1.884961 60 87 25
-0.122151 0.035785 1.884981 58 87 24
-0.113166 0.035636 1.884625 56 84 26
-0.102230 0.034575 1.885074 62 86 27
-0.093091 0.035474 1.885839 58 78 29
-0.084058 0.035347 1.885416 32 39 15
-0.074990 0.035587 1.884451 22 24 10
-0.066528 0.038784 1.885800 15 18 10
-0.181189 0.026245 1.885228 12 15 5
-0.172249 0.023411 1.884601 39 52 22
-0.162992 0.024794 1.884361 37 50 14
-0.153591 0.025222 1.885280 46 57 18
-0.143037 0.027037 1.884331 41 58 14
-0.132870 0.026118 1.885733 47 70 17
-0.122523 0.026354 1.885405 54 82 21
-0.112089 0.026034 1.885642 57 87 27
-0.102390 0.025086 1.884122 57 83 28
-0.092753 0.025488 1.885369 57 78 28
-0.083472 0.026434 1.884841 45 56 19
-0.073519 0.025981 1.885985 32 31 13
-0.181727 0.014600 1.885076 29 31 15
-0.173135 0.014877 1.884131 34 49 17
-0.162352 0.013633 1.886081 47 55 22
-0.152935 0.014950 1.885099 55 70 27
-0.143454 0.016439 1.884478 50 70 20
-0.133133 0.015641 1.885498 42 63 12
-0.122613 0.014953 1.885089 47 72 16
-0.112621 0.015774 1.885119 57 83 26
-0.102272 0.015993 1.885447 62 89 28
-0.093219 0.016865 1.885082 55 73 25
-0.083469 0.014458 1.884835 35 36 14
-0.073874 0.014046 1.883095 46 57 19
-0.067582 0.014149 1.889873 56 74 20
-0.055404 0.018588 1.886417 15 13 5
-0.180905 0.004472 1.886704 11 17 5
-0.172392 0.004954 1.885937 25 28 13
-0.163093 0.006194 1.884445 42 50 19
-0.152680 0.005298 1.884894 54 77 26
-0.142401 0.004210 1.885826 55 83 24
-0.133316 0.006261 1.885128 41 64 13
-0.122365 0.006823 1.884744 43 66 13
-0.114273 0.006774 1.885022 53 77 20
-0.103314 0.006289 1.884464 62 86 28
-0.095254 0.004132 1.883294 73 106 30
-0.085210 0.009503 1.881836 49 56 18
-0.182320 -0.002362 1.883118 13 12 7
-0.169854 -0.004385 1.885233 15 15 6
-0.161826 -0.003947 1.884896 37 37 15
-0.152924 -0.004765 1.885017 48 61 20
-0.143602 -0.004449 1.884522 61 83 25
-0.132972 -0.003745 1.884989 61 89 25
-0.123398 -0.004508 1.885563 48 73 16
-0.111556 -0.005065 1.885181 52 76 22
-0.103431 -0.003089 1.884204 60 89 25
-0.096957 -0.003987 1.881844 44 58 20
-0.081503 0.000432 1.888050 44 48 27
-0.172115 -0.013008 1.888165 27 24 14
-0.161230 -0.014659 1.886252 25 22 12
-0.153368 -0.012437 1.884875 38 45 18
-0.143335 -0.013429 1.884027 49 67 22
-0.131748 -0.010099 1.882459 68 101 27
-0.123050 -0.015175 1.884722 57 80 21
-0.112138 -0.013509 1.886296 44 61 16
-0.101450 -0.011136 1.884771 55 66 19
-0.092690 -0.010885 1.887830 45 66 21
-0.081220 -0.015032 1.884320 50 55 26
-0.171432 -0.021630 1.888352 54 64 16
-0.162769 -0.023961 1.884797 14 17 7
-0.151138 -0.024024 1.885830 53 80 21
-0.143402 -0.025360 1.882941 35 53 16
-0.134755 -0.025487 1.881551 54 80 21
-0.124845 -0.028478 1.882940 41 78 15
-0.109087 -0.023832 1.884530 47 74 32
-0.090792 -0.022748 1.882207 40 50 21
-0.163728 -0.029583 1.888994 24 35 13
-0.155246 -0.035133 1.885056 64 89 27
-0.141733 -0.031008 1.888406 59 88 22
-0.103864 -0.030152 1.887342 43 54 36
-0.085416 -0.030829 1.887375 22 24 11
-0.147887 -0.043420 1.883484 68 98 26
-0.107315 -0.041709 1.888233 13 14 10
-0.142822 -0.049419 1.880203 60 89 20
-0.081075 -0.057123 1.889101 16 23 7
-0.113989 0.238160 1.896091 47 70 61
-0.093709 0.231066 1.897237 39 56 54
-0.111702 0.230519 1.891651 34 53 45
-0.101297 0.225680 1.893696 25 38 35
-0.091989 0.222538 1.890841 53 72 57
-0.116799 0.214650 1.893460 13 20 16
-0.138657 0.125294 1.894794 34 51 18
-0.137031 0.125868 1.895965 44 78 28
-0.085785 0.121832 1.898897 60 87 22
-0.151411 0.110813 1.893389 8 13 5
-0.145111 0.120595 1.898666 15 28 12
-0.082162 0.118131 1.894416 55 77 21
-0.073223 0.116639 1.896765 40 47 15
-0.067041 0.113174 1.896435 23 25 9
-0.180194 0.101657 1.897328 44 71 23
-0.171676 0.105618 1.895075 63 104 33
-0.163076 0.108694 1.893758 70 114 36
-0.145312 0.108805 1.897520 50 84 27
-0.123305 0.106963 1.891611 9 12 5
-0.206635 0.099284 1.894021 60 92 30
-0.193039 0.097647 1.896689 28 37 12
-0.155906 0.091348 1.898834 52 79 24
-0.122211 0.095722 1.896265 28 33 12
-0.117627 0.099570 1.898343 18 24 8
-0.091710 0.096327 1.895812 69 101 31
-0.191037 0.084599 1.894763 62 74 29
-0.163353 0.082135 1.892010 68 112 39
-0.141905 0.085400 1.899081 41 36 22
-0.128605 0.084788 1.894708 48 62 17
-0.115858 0.086884 1.896191 53 72 22
-0.080994 0.085072 1.894809 30 42 23
-0.193489 0.076597 1.896266 71 102 37
-0.168000 0.073437 1.896849 65 106 35
-0.167143 0.072082 1.893838 1 4 1
-0.123484 0.076254 1.893941 60 83 19
-0.114432 0.073585 1.894606 65 95 23
-0.093770 0.076287 1.896773 12 15 10
-0.071082 0.071702 1.893534 43 40 21
-0.064639 0.077259 1.897058 24 25 15
-0.196536 0.067781 1.894626 65 93 31
-0.176505 0.066159 1.891398 6 9 2
-0.152926 0.062805 1.895095 52 70 16
-0.142472 0.060933 1.892004 68 97 27
-0.130616 0.063837 1.893717 54 85 19
-0.123488 0.064273 1.893971 24 27 12
-0.116426 0.067813 1.891613 66 92 27
-0.101910 0.063208 1.895535 23 22 11
-0.095982 0.066006 1.893176 25 22 9
-0.081648 0.062143 1.894811 40 45 23
-0.064144 0.064400 1.893764 17 22 7
-0.199547 0.058948 1.893018 47 62 22
-0.182508 0.054179 1.895857 12 16 7
-0.162444 0.057560 1.895266 26 37 11
-0.150429 0.058427 1.896844 58 85 21
-0.146877 0.058721 1.893392 66 96 22
-0.133915 0.054484 1.896118 50 67 21
-0.122870 0.054588 1.895505 40 50 18
-0.112693 0.054211 1.894366 27 33 13
-0.102668 0.053868 1.895308 39 46 17
-0.093802 0.055019 1.895260 21 26 9
-0.081846 0.053660 1.893419 44 53 22
-0.182507 0.045907 1.892159 34 51 20
-0.140825 0.043940 1.897449 37 50 15
-0.132883 0.045967 1.894478 56 76 26
-0.124820 0.045649 1.895447 66 95 27
-0.113039 0.045865 1.895687 53 77 28
-0.103184 0.046086 1.894127 53 72 24
-0.093537 0.045613 1.892778 26 35 15
-0.082700 0.044100 1.894701 34 35 15
-0.074237 0.044190 1.896060 15 15 7
-0.063494 0.045240 1.897924 8 8 4
-0.183869 0.036838 1.893660 59 91 34
-0.174376 0.035385 1.895014 56 89 34
-0.161409 0.031388 1.895988 47 61 21
-0.149664 0.035219 1.895321 38 50 16
-0.142876 0.034639 1.894339 49 71 21
-0.133561 0.033277 1.895887 50 77 22
-0.122645 0.036380 1.895341 60 90 26
-0.112792 0.035365 1.895021 60 87 26
-0.102303 0.034895 1.895933 60 86 29
-0.092862 0.035621 1.895856 54 71 26
-0.082908 0.034942 1.895983 28 34 13
-0.075624 0.035862 1.893461 20 20 9
-0.063391 0.039376 1.898068 25 23 12
-0.205327 0.022843 1.891060 14 15 11
-0.179940 0.022722 1.895523 36 53 18
-0.173008 0.024682 1.893040 36 47 19
-0.162137 0.024847 1.894518 46 56 21
-0.153354 0.024452 1.895368 45 59 16
-0.143263 0.026683 1.896012 36 49 14
-0.133856 0.027008 1.895002 46 67 16
-0.122951 0.025779 1.895441 54 83 22
-0.112445 0.025189 1.895275 58 86 25
-0.102534 0.025592 1.894823 58 83 28
-0.092321 0.025936 1.895685 57 78 27
-0.083777 0.026547 1.894831 39 47 16
-0.074563 0.023731 1.894945 38 36 15
-0.182166 0.013580 1.894746 30 39 13
-0.170965 0.012701 1.896115 41 48 19
-0.163668 0.014830 1.895875 50 58 23
-0.153273 0.015461 1.894713 58 75 31
-0.142522 0.015597 1.894859 48 69 19
-0.133801 0.015097 1.895339 41 63 13
-0.122915 0.015912 1.895268 46 69 17
-0.112384 0.014734 1.895216 60 86 26
-0.102486 0.015904 1.895246 62 88 29
-0.093730 0.017677 1.894262 55 71 25
-0.082112 0.018022 1.895362 30 30 15
-0.071973 0.015895 1.897792 52 46 21
-0.067218 0.012685 1.893538 41 33 13
-0.180635 0.005653 1.896544 16 20 10
-0.172259 0.005728 1.896369 29 33 14
-0.163380 0.005278 1.894367 38 47 18
-0.153248 0.004973 1.894640 57 80 28
-0.142784 0.005864 1.895279 54 81 23
-0.132975 0.006335 1.894933 40 63 12
-0.123684 0.007023 1.894642 43 66 13
-0.114008 0.006482 1.895416 60 89 23
-0.104064 0.003010 1.896613 59 78 25
-0.092210 0.006019 1.895273 32 44 14
-0.084372 0.009673 1.892959 50 53 34
-0.181163 -0.003242 1.895133 18 19 11
-0.171163 -0.004200 1.893574 25 26 11
-0.161949 -0.003672 1.894948 32 36 13
-0.152724 -0.004573 1.894931 49 65 20
-0.143529 -0.004514 1.894404 62 85 25
-0.132599 -0.003754 1.894875 62 91 24
-0.124312 -0.003086 1.894669 44 68 11
-0.112247 -0.003889 1.894675 49 71 20
-0.103382 -0.003710 1.896058 60 91 29
-0.094541 -0.002726 1.893536 47 61 18
-0.179798 -0.019203 1.898477 22 22 10
-0.172987 -0.013181 1.897199 29 29 11
-0.160860 -0.013892 1.894707 22 19 10
-0.152819 -0.012684 1.895086 44 56 17
-0.144079 -0.014703 1.894978 56 79 22
-0.134851 -0.012945 1.895264 60 90 25
-0.122539 -0.013356 1.895505 50 71 21
-0.112603 -0.011637 1.896569 51 75 14
-0.104984 -0.014460 1.895275 35 42 14
-0.091628 -0.010705 1.897728 44 65 22
-0.081786 -0.011895 1.899324 43 48 20
-0.169546 -0.022504 1.895846 39 47 16
-0.162549 -0.024788 1.896888 33 38 15
-0.153887 -0.020912 1.895030 49 77 21
-0.140087 -0.025173 1.894803 57 78 23
-0.130417 -0.023300 1.894079 40 65 16
-0.125641 -0.028852 1.895619 41 75 15
-0.110731 -0.023521 1.891572 54 84 30
-0.098949 -0.020737 1.893607 40 44 23
-0.090933 -0.022394 1.893577 42 51 23
-0.158923 -0.030763 1.895415 51 73 22
-0.153398 -0.035874 1.893376 67 97 28
-0.142433 -0.031902 1.898051 57 80 22
-0.135697 -0.031744 1.894969 54 63 21
-0.127769 -0.030725 1.899141 34 38 13
-0.105036 -0.030047 1.896793 34 43 27
-0.085075 -0.030652 1.898095 33 35 14
-0.121896 -0.041542 1.895739 26 27 20
-0.095442 -0.041743 1.891536 40 59 20
-0.081841 -0.057373 1.898553 11 17 6
-0.104099 0.233991 1.903922 43 66 59
-0.096179 0.239596 1.900665 42 64 61
-0.120033 0.223270 1.909900 53 76 65
-0.117991 0.216861 1.904065 36 54 45
-0.122824 0.199696 1.907344 23 30 27
-0.130234 0.132987 1.904187 64 113 37
-0.092859 0.130712 1.906619 71 106 31
-0.086740 0.131124 1.906999 60 87 25
-0.138893 0.127398 1.906304 37 65 24
-0.086427 0.125003 1.904196 61 87 23
-0.071631 0.121627 1.908860 23 27 11
-0.152791 0.113184 1.903730 7 12 5
-0.146200 0.110753 1.908246 48 82 28
-0.137862 0.119683 1.909726 19 14 9
-0.080484 0.119398 1.905672 52 70 22
-0.070949 0.118759 1.903314 37 42 15
-0.194682 0.102005 1.904733 23 21 9
-0.172515 0.107068 1.906328 65 108 36
-0.163854 0.109498 1.905695 69 115 36
-0.122300 0.103232 1.903553 21 24 7
-0.202895 0.099359 1.907700 39 62 20
-0.193993 0.095429 1.906031 31 32 10
-0.157442 0.094563 1.908240 43 65 22
-0.125451 0.095157 1.906192 26 30 10
-0.092678 0.096585 1.903574 69 102 31
-0.193145 0.085780 1.903722 56 69 24
-0.165355 0.084105 1.901805 68 111 39
-0.153288 0.084581 1.904486 44 38 21
-0.143015 0.085303 1.907152 20 17 11
-0.132483 0.087327 1.904780 31 43 10
-0.116081 0.089589 1.905978 56 76 24
-0.086176 0.085292 1.905765 39 53 33
-0.060870 0.080970 1.909392 45 54 25
-0.198832 0.070940 1.908654 67 98 35
-0.197069 0.070802 1.902009 69 99 36
-0.169184 0.073272 1.904475 27 43 14
-0.128198 0.074893 1.909251 48 45 31
-0.124069 0.078529 1.906359 61 83 20
-0.112799 0.073331 1.906412 68 100 22
-0.100505 0.075128 1.908456 42 39 10
-0.064227 0.075638 1.905935 34 32 20
-0.200704 0.065178 1.903609 59 84 25
-0.183216 0.062285 1.908068 57 64 40
-0.177512 0.066566 1.903911 8 11 3
-0.158136 0.062897 1.909485 47 63 16
-0.152517 0.064710 1.904167 55 80 16
-0.131218 0.064789 1.904629 66 82 28
-0.121537 0.064320 1.903039 30 35 15
-0.114278 0.064149 1.904890 41 45 21
-0.102656 0.066074 1.906334 23 20 9
-0.092072 0.063942 1.906844 27 24 10
-0.081824 0.061243 1.901555 23 26 14
-0.061354 0.064348 1.904121 35 46 24
-0.200647 0.058767 1.904352 39 54 14
-0.194943 0.057035 1.909642 18 22 11
-0.185213 0.055228 1.909347 30 35 19
-0.163667 0.059971 1.903324 28 41 12
-0.154503 0.058331 1.904049 52 76 19
-0.139693 0.053545 1.906512 66 93 26
-0.131347 0.057336 1.903863 53 65 27
-0.122405 0.054081 1.904853 44 54 19
-0.112105 0.054194 1.903727 34 44 15
-0.101640 0.054293 1.906104 31 38 13
-0.094560 0.056022 1.904617 35 39 14
-0.083752 0.056474 1.902244 50 60 25
-0.076965 0.051646 1.905895 46 64 21
-0.183345 0.046474 1.902215 37 54 21
-0.154261 0.047545 1.903892 56 72 29
-0.142476 0.045219 1.904697 43 58 20
-0.132012 0.045531 1.904908 55 79 24
-0.121254 0.045133 1.904503 63 93 29
-0.113117 0.044818 1.904993 55 78 27
-0.103162 0.046734 1.905241 50 68 23
-0.093621 0.044100 1.904748 48 61 27
-0.083237 0.044762 1.904181 31 31 12
-0.074436 0.043959 1.904958 26 26 10
-0.063951 0.044656 1.907324 18 19 10
-0.192084 0.032675 1.904678 49 75 24
-0.179471 0.037901 1.908260 57 90 37
-0.162378 0.032192 1.906654 45 59 17
-0.152703 0.035792 1.905449 39 46 14
-0.143462 0.035590 1.905640 46 64 17
-0.134203 0.034485 1.904256 51 75 22
-0.122738 0.036261 1.905563 61 92 27
-0.112572 0.035607 1.905102 61 90 27
-0.102382 0.035044 1.905996 61 85 29
-0.092536 0.035126 1.905099 52 68 25
-0.082491 0.035036 1.905378 31 36 14
-0.075176 0.035401 1.902390 18 18 10
-0.199765 0.028855 1.902612 22 32 11
-0.180981 0.025593 1.905825 37 56 20
-0.171300 0.024409 1.904396 35 42 15
-0.160875 0.025007 1.904855 47 53 19
-0.152704 0.024260 1.906118 44 60 16
-0.143351 0.026715 1.905674 34 49 13
-0.132337 0.024991 1.905680 46 70 16
-0.123168 0.026333 1.905360 53 82 21
-0.111991 0.025775 1.904758 59 87 27
-0.102000 0.025943 1.904619 56 81 29
-0.092773 0.025548 1.904752 58 79 28
-0.084114 0.026805 1.904925 41 46 17
-0.076992 0.026854 1.906490 37 34 15
-0.194706 0.015103 1.907296 6 6 5
-0.184159 0.013900 1.905210 19 26 8
-0.172653 0.012654 1.904632 36 41 17
-0.162703 0.014345 1.904848 45 57 22
-0.153352 0.014415 1.905427 60 83 29
-0.142646 0.015228 1.904647 48 73 18
-0.133261 0.015669 1.904600 40 63 11
-0.123421 0.015694 1.904352 52 76 20
-0.113093 0.016000 1.905768 59 85 27
-0.103225 0.016995 1.904668 67 94 31
-0.094639 0.016426 1.904649 42 55 19
-0.084336 0.016466 1.904482 29 27 14
-0.076117 0.019514 1.901300 48 41 16
-0.181621 0.005719 1.906429 22 26 11
-0.171295 0.004093 1.905720 30 34 14
-0.163171 0.004368 1.904949 38 50 18
-0.152748 0.005712 1.903852 53 80 26
-0.143277 0.005410 1.905301 50 76 20
-0.132711 0.007112 1.905602 40 63 11
-0.123365 0.007385 1.905673 48 71 15
-0.115092 0.007099 1.904957 57 84 24
-0.101641 0.005375 1.904164 58 81 26
-0.090063 0.006735 1.908958 43 41 18
-0.079211 0.004812 1.904305 38 41 23
-0.178943 -0.004178 1.904978 23 25 12
-0.172486 -0.002865 1.904225 18 19 7
-0.162335 -0.004151 1.905043 38 44 16
-0.152886 -0.003740 1.904739 52 70 21
-0.143333 -0.003792 1.904514 61 86 25
-0.133296 -0.003669 1.904485 60 90 22
-0.122688 -0.004813 1.905294 44 64 13
-0.111978 -0.004520 1.904483 48 69 21
-0.104012 -0.003184 1.906091 60 91 29
-0.093285 -0.003298 1.904840 50 54 18
-0.083164 -0.003046 1.905709 37 34 13
-0.182141 -0.013974 1.905322 47 44 23
-0.173116 -0.013333 1.906132 37 35 15
-0.163291 -0.013005 1.904303 36 30 18
-0.153294 -0.013012 1.905224 50 66 20
-0.142358 -0.013586 1.905884 60 85 22
-0.133610 -0.016871 1.904616 48 81 18
-0.123444 -0.012959 1.905880 57 85 23
-0.113301 -0.012132 1.902719 47 67 21
-0.106713 -0.015541 1.908989 55 65 20
-0.091711 -0.012152 1.907684 48 71 29
-0.170063 -0.022636 1.905232 40 48 16
-0.162642 -0.024943 1.905953 36 48 14
-0.154486 -0.020250 1.906616 51 82 23
-0.141555 -0.024857 1.904319 44 57 18
-0.132548 -0.024714 1.903865 41 62 15
-0.123118 -0.024884 1.906099 50 87 23
-0.111983 -0.024420 1.902005 47 69 30
-0.106614 -0.021516 1.900026 40 59 33
-0.091101 -0.020728 1.905541 42 54 23
-0.153009 -0.035806 1.906363 67 97 26
-0.133362 -0.030783 1.909107 33 39 11
-0.106617 -0.030271 1.905674 27 32 19
-0.085479 -0.030291 1.909535 43 45 17
-0.095403 -0.044488 1.903107 42 61 22
-0.082927 -0.056622 1.907152 13 19 7
-0.126126 0.174996 1.919200 7 11 9
-0.131355 0.133946 1.916088 64 114 39
-0.091941 0.135711 1.915928 67 99 32
-0.087445 0.133756 1.912750 59 87 26
-0.146261 0.121727 1.910375 25 47 23
-0.081752 0.121479 1.915874 48 68 23
-0.072528 0.122520 1.916083 11 17 6
-0.153690 0.112979 1.916917 17 32 17
-0.133894 0.116233 1.919687 35 34 19
-0.197895 0.102349 1.914198 30 26 10
-0.173390 0.108919 1.917154 65 109 37
-0.164622 0.110163 1.917777 68 115 36
-0.154719 0.106794 1.910497 58 100 32
-0.132941 0.104589 1.915877 29 29 15
-0.119124 0.101979 1.916512 58 71 20
-0.208133 0.100401 1.918413 47 78 25
-0.192477 0.096709 1.914471 26 33 9
-0.180188 0.094120 1.918097 46 76 26
-0.159114 0.098510 1.916831 38 60 23
-0.134198 0.098603 1.917816 46 41 16
-0.126208 0.096858 1.916841 45 52 17
-0.115972 0.092908 1.915216 59 82 19
-0.194856 0.085740 1.914500 59 73 25
-0.165795 0.084417 1.914904 64 103 35
-0.156210 0.083377 1.913393 25 22 15
-0.144242 0.084906 1.915468 25 24 15
-0.133768 0.086793 1.913215 38 52 14
-0.105962 0.082178 1.913137 44 43 12
-0.200807 0.071134 1.915109 67 97 32
-0.171003 0.074161 1.915519 38 60 21
-0.162013 0.075626 1.913369 48 75 22
-0.154917 0.073478 1.914362 55 82 21
-0.124895 0.079029 1.913982 60 83 19
-0.114214 0.075267 1.914359 68 101 22
-0.081671 0.073098 1.917144 49 40 19
-0.065089 0.072799 1.915629 27 33 25
-0.204737 0.065585 1.916454 55 80 24
-0.178822 0.068588 1.914636 8 12 5
-0.161732 0.064636 1.913991 32 43 15
-0.153038 0.061960 1.913524 61 88 22
-0.139737 0.062009 1.916409 69 98 24
-0.132497 0.065862 1.914761 60 83 21
-0.121016 0.065491 1.913819 34 34 15
-0.114218 0.068173 1.914166 38 39 20
-0.101314 0.063643 1.915329 36 41 9
-0.094442 0.061714 1.917025 46 46 25
-0.081603 0.062457 1.915407 4 6 4
-0.060860 0.065097 1.913786 33 43 24
-0.203678 0.059076 1.913982 41 57 13
-0.197129 0.057788 1.918219 5 8 3
-0.149064 0.055268 1.917689 71 88 39
-0.143788 0.053158 1.913519 66 90 29
-0.131860 0.055369 1.915365 47 51 24
-0.123347 0.054256 1.914024 49 56 17
-0.112641 0.054094 1.915012 36 49 18
-0.103142 0.055109 1.915145 27 34 13
-0.093825 0.055177 1.914815 45 53 21
-0.084355 0.059011 1.914559 58 63 26
-0.065262 0.050717 1.915036 39 32 17
-0.188521 0.048094 1.918466 38 55 23
-0.185999 0.047293 1.910270 42 60 25
-0.153655 0.047086 1.914690 59 85 30
-0.142679 0.044537 1.914622 56 74 27
-0.131301 0.046158 1.914630 60 87 24
-0.121847 0.045568 1.915495 56 81 25
-0.113639 0.045027 1.915085 57 79 28
-0.103182 0.046986 1.914968 50 70 25
-0.093457 0.044211 1.915179 43 53 21
-0.083582 0.045225 1.915744 31 35 15
-0.075630 0.049116 1.912300 39 40 18
-0.063446 0.044633 1.916157 21 20 11
-0.202186 0.031517 1.911419 22 32 12
-0.193847 0.034291 1.914968 51 78 27
-0.182509 0.034756 1.916778 59 95 38
-0.161487 0.032087 1.916625 43 59 14
-0.151733 0.037161 1.915245 36 47 14
-0.142591 0.033908 1.915793 48 68 18
-0.133272 0.035231 1.914886 54 78 22
-0.122523 0.036047 1.915253 59 88 26
-0.112487 0.034918 1.914242 64 96 29
-0.102485 0.035179 1.915720 61 86 31
-0.091910 0.035155 1.915352 47 60 23
-0.083056 0.035812 1.915340 27 31 13
-0.075976 0.037740 1.914673 25 24 12
-0.058667 0.039470 1.919306 8 7 5
-0.183527 0.023613 1.916065 28 38 13
-0.171959 0.026418 1.913835 40 49 18
-0.161677 0.023880 1.913866 49 61 20
-0.152898 0.026328 1.916001 44 58 18
-0.142652 0.027219 1.914749 37 55 13
-0.131621 0.026799 1.914909 50 75 19
-0.123794 0.025217 1.914701 51 76 19
-0.112590 0.025600 1.915447 59 87 28
-0.103087 0.025378 1.915429 59 85 31
-0.093755 0.027079 1.915032 56 75 28
-0.084101 0.026919 1.914219 38 41 17
-0.072273 0.022261 1.915916 23 20 12
-0.191160 0.015290 1.914015 12 15 7
-0.181651 0.014284 1.917668 32 41 16
-0.172644 0.013764 1.915048 35 40 16
-0.162747 0.014629 1.914524 54 74 24
-0.151620 0.015742 1.914624 57 80 24
-0.142561 0.014990 1.915413 44 66 15
-0.132334 0.014790 1.914364 41 64 13
-0.122932 0.015721 1.914667 53 78 21
-0.113312 0.016283 1.915258 61 88 27
-0.103008 0.017828 1.914148 63 90 30
-0.094777 0.018546 1.914890 59 78 26
-0.085881 0.017354 1.913965 39 45 16
-0.071233 0.016193 1.913188 26 21 10
-0.181564 0.006566 1.915185 43 43 21
-0.171482 0.005131 1.914652 36 40 16
-0.162974 0.004775 1.914821 44 61 21
-0.153345 0.005315 1.914491 53 79 24
-0.143500 0.005281 1.915158 51 78 21
-0.132358 0.006808 1.915738 41 61 10
-0.122817 0.006193 1.914882 47 70 14
-0.114946 0.007087 1.915728 55 81 25
-0.101683 0.003516 1.914680 63 88 25
-0.093316 0.007232 1.914666 29 35 14
-0.083584 0.003184 1.911564 64 56 32
-0.069435 0.004509 1.915918 41 39 15
-0.190403 -0.001202 1.911965 8 10 5
-0.180430 -0.001607 1.916015 23 23 10
-0.171928 -0.002387 1.914316 26 28 10
-0.162658 -0.003848 1.914544 38 45 15
-0.153473 -0.003573 1.915127 53 74 21
-0.143746 -0.003370 1.914529 59 82 24
-0.132792 -0.002762 1.915390 54 79 18
-0.124550 -0.002475 1.914939 46 66 12
-0.113307 -0.004927 1.913625 56 79 26
-0.104448 -0.001811 1.915397 61 91 28
-0.092598 -0.002112 1.916045 45 49 17
-0.081108 0.000449 1.910481 6 8 3
-0.180901 -0.014355 1.917090 36 36 12
-0.171633 -0.014954 1.916260 26 30 12
-0.162913 -0.013241 1.914768 22 22 9
-0.153165 -0.014449 1.913114 53 73 20
-0.143056 -0.013220 1.915576 58 84 22
-0.132500 -0.014988 1.914413 55 80 22
-0.122546 -0.013013 1.916816 53 82 18
-0.112304 -0.012984 1.913245 48 63 26
-0.106554 -0.013170 1.914954 54 65 20
-0.088645 -0.012654 1.915720 48 69 26
-0.171155 -0.022940 1.914047 41 52 16
-0.161602 -0.024148 1.916342 53 78 20
-0.155041 -0.019358 1.917935 53 88 22
-0.143358 -0.024449 1.914480 45 59 16
-0.133945 -0.024839 1.916402 36 56 12
-0.123555 -0.024278 1.916074 49 85 22
-0.113149 -0.024764 1.911215 47 66 30
-0.089724 -0.020811 1.915230 47 59 22
-0.081104 -0.022686 1.917838 45 58 22
-0.173081 -0.029471 1.918028 2 4 1
-0.153111 -0.035184 1.916307 69 99 29
-0.143733 -0.035872 1.916126 53 82 17
-0.131881 -0.032149 1.917392 21 22 7
-0.114110 -0.034212 1.917481 14 12 9
-0.082009 -0.030891 1.917180 44 46 18
-0.144234 -0.039722 1.911511 54 83 18
-0.096829 -0.042686 1.910815 42 60 22
-0.084119 -0.055550 1.915478 25 31 13
-0.125694 0.206532 1.925813 56 80 70
-0.123400 0.198865 1.921402 40 56 50
-0.128888 0.184965 1.920985 30 43 35
-0.132458 0.134813 1.928082 66 115 39
-0.094793 0.140207 1.922520 71 105 34
-0.143275 0.124983 1.921299 41 76 33
-0.131983 0.121885 1.922825 19 19 10
-0.082613 0.122694 1.922821 47 67 24
-0.076240 0.125399 1.921265 21 32 12
-0.174264 0.110762 1.927986 65 110 36
-0.165411 0.111098 1.929568 67 114 35
-0.146957 0.111274 1.920478 46 80 28
-0.129989 0.112683 1.929729 31 31 16
-0.208960 0.101798 1.929718 46 78 27
-0.155527 0.107903 1.922105 58 101 33
-0.132908 0.104120 1.925111 49 48 23
-0.199168 0.099567 1.921236 17 32 11
-0.193337 0.096986 1.924196 21 29 11
-0.181030 0.095624 1.929283 48 80 29
-0.160395 0.100364 1.927741 36 62 25
-0.151739 0.092109 1.927324 23 20 15
-0.147685 0.093881 1.923244 45 38 26
-0.129992 0.098266 1.924305 57 62 25
-0.127440 0.092897 1.927084 51 66 21
-0.112171 0.097826 1.920299 26 22 16
-0.196475 0.085677 1.925349 63 79 31
-0.162266 0.084047 1.926926 59 93 28
-0.157013 0.083103 1.920328 16 16 12
-0.143680 0.085060 1.923696 43 46 20
-0.131756 0.086159 1.924541 68 82 38
-0.114119 0.089727 1.922188 40 38 23
-0.203993 0.071478 1.924590 67 96 30
-0.180004 0.071888 1.926534 31 50 16
-0.173135 0.077531 1.924438 53 87 30
-0.162277 0.076682 1.923716 40 56 23
-0.152380 0.077038 1.923154 41 55 22
-0.126027 0.078972 1.922093 61 84 21
-0.111363 0.074792 1.924790 68 102 20
-0.080566 0.070968 1.922840 46 39 19
-0.077028 0.077620 1.923465 37 33 17
-0.208075 0.065971 1.925807 54 77 25
-0.179092 0.063472 1.923958 51 58 36
-0.169680 0.068997 1.926642 23 31 16
-0.161178 0.063298 1.926661 44 60 17
-0.153314 0.064460 1.923574 51 71 21
-0.141604 0.064126 1.926250 71 99 29
-0.135294 0.066410 1.923500 49 66 19
-0.125452 0.063494 1.924545 48 53 23
-0.114443 0.065822 1.927015 28 40 11
-0.088835 0.062905 1.927743 1 1 1
-0.081380 0.062420 1.924333 35 34 15
-0.075398 0.065622 1.922205 37 31 15
-0.058373 0.063791 1.927118 30 43 11
-0.202326 0.058886 1.923790 22 31 9
-0.164602 0.056801 1.928599 54 71 37
-0.153592 0.053236 1.925710 66 92 33
-0.143180 0.055384 1.924507 53 72 24
-0.131807 0.054695 1.924764 49 64 18
-0.125594 0.052671 1.923538 35 30 12
-0.112725 0.054471 1.925150 43 58 19
-0.103304 0.056774 1.923604 24 26 12
-0.090276 0.056063 1.924289 32 39 18
-0.082376 0.056170 1.925118 37 41 18
-0.073604 0.055115 1.922751 25 28 11
-0.063407 0.054092 1.928901 18 16 9
-0.192661 0.049119 1.924891 29 46 17
-0.159069 0.048556 1.924756 68 94 35
-0.152825 0.043834 1.923779 40 51 21
-0.143112 0.043417 1.924936 55 80 24
-0.132162 0.046529 1.925203 61 87 22
-0.122027 0.046713 1.924494 54 75 24
-0.113515 0.045426 1.924880 55 77 27
-0.103228 0.046035 1.925142 55 75 29
-0.093205 0.043573 1.925688 44 56 21
-0.083643 0.044043 1.925779 28 29 14
-0.077044 0.045484 1.928559 18 17 8
-0.062678 0.045592 1.920846 31 27 15
-0.055829 0.046153 1.925160 37 29 18
-0.203799 0.032900 1.922040 31 43 16
-0.195881 0.036338 1.924639 56 84 32
-0.185163 0.035576 1.924819 60 95 38
-0.168805 0.031912 1.926224 51 66 23
-0.161107 0.034702 1.925800 28 37 9
-0.153372 0.037192 1.924947 38 53 14
-0.143333 0.034618 1.925498 47 68 19
-0.132199 0.036683 1.924845 54 81 23
-0.122861 0.034934 1.924316 60 91 29
-0.113353 0.034811 1.924403 60 90 30
-0.102381 0.035311 1.924730 60 84 30
-0.092605 0.034898 1.924662 48 62 23
-0.082749 0.035486 1.925350 33 35 14
-0.075431 0.038110 1.925810 38 38 16
-0.062434 0.037504 1.926592 41 42 21
-0.189797 0.022794 1.927075 41 56 20
-0.182359 0.023400 1.924491 14 17 6
-0.173635 0.025375 1.925336 43 44 18
-0.164153 0.024970 1.925615 47 60 18
-0.153144 0.026556 1.924838 42 55 18
-0.142539 0.025995 1.926068 40 60 14
-0.131604 0.025768 1.924544 50 77 19
-0.122415 0.024687 1.925003 50 76 20
-0.112544 0.025895 1.925530 61 88 28
-0.102917 0.025480 1.925670 58 85 31
-0.093123 0.027023 1.925310 52 68 25
-0.084911 0.026463 1.925118 34 36 14
-0.074736 0.028915 1.923601 19 19 10
-0.204149 0.017617 1.923718 3 3 3
-0.191766 0.015334 1.923632 23 21 11
-0.181880 0.014888 1.925586 28 31 14
-0.171140 0.013509 1.925004 42 52 19
-0.162649 0.015099 1.925682 54 73 24
-0.152725 0.015336 1.924966 53 74 25
-0.142863 0.015182 1.925582 44 64 14
-0.133131 0.015461 1.924888 40 62 13
-0.122635 0.015778 1.924754 51 76 21
-0.112772 0.015718 1.924725 63 93 28
-0.104275 0.017135 1.924236 61 86 29
-0.093589 0.015154 1.924986 55 72 23
-0.080551 0.019321 1.929795 36 35 16
-0.181934 0.005549 1.925082 28 27 13
-0.172563 0.005699 1.925296 35 39 15
-0.162831 0.004680 1.925211 48 68 22
-0.152511 0.005634 1.924667 55 82 24
-0.142834 0.005807 1.924085 48 73 18
-0.132754 0.006890 1.924661 40 60 9
-0.123045 0.005109 1.925129 50 75 16
-0.114222 0.006419 1.925176 59 87 24
-0.100318 0.004066 1.924038 54 76 23
-0.092522 0.006466 1.924412 23 29 9
-0.083565 0.008988 1.925012 53 69 17
-0.071007 0.007564 1.925107 40 41 17
-0.191135 -0.000668 1.922750 12 14 8
-0.179884 -0.002464 1.925421 26 24 12
-0.171562 -0.003651 1.925192 34 34 14
-0.162319 -0.003298 1.924970 42 52 16
-0.153105 -0.003892 1.925009 55 76 21
-0.143189 -0.003623 1.925439 65 92 27
-0.133682 -0.002677 1.925269 48 78 16
-0.123178 -0.003277 1.924165 42 63 16
-0.113619 -0.004646 1.924569 53 75 26
-0.105693 -0.002369 1.925138 64 87 27
-0.077084 -0.003758 1.924634 36 37 14
-0.181220 -0.012811 1.926389 36 36 14
-0.171129 -0.014582 1.927265 29 33 10
-0.162286 -0.013012 1.925063 38 47 16
-0.152099 -0.015192 1.923857 52 79 20
-0.143946 -0.013494 1.924543 49 67 18
-0.133066 -0.014476 1.924995 52 78 20
-0.122819 -0.011920 1.927917 50 79 18
-0.113546 -0.013036 1.925320 41 56 22
-0.086130 -0.013020 1.924292 47 69 25
-0.070757 -0.013334 1.929902 37 33 16
-0.178556 -0.021267 1.922521 15 16 6
-0.170632 -0.023909 1.926551 48 69 18
-0.163427 -0.022112 1.924770 46 67 18
-0.143541 -0.024114 1.925304 45 59 16
-0.135991 -0.027062 1.928163 31 48 9
-0.121379 -0.024953 1.926760 59 97 31
-0.115787 -0.024371 1.923267 46 58 25
-0.075674 -0.021107 1.921082 16 17 8
-0.062715 -0.019566 1.923894 51 51 23
-0.174621 -0.029888 1.927263 12 12 6
-0.153986 -0.034705 1.923809 70 100 29
-0.142375 -0.032145 1.924805 52 71 17
-0.118552 -0.036743 1.922436 18 15 9
-0.077812 -0.031672 1.924114 50 51 24
-0.099102 -0.040875 1.927750 40 55 23
-0.097642 -0.042785 1.920137 42 58 24
-0.085508 -0.053861 1.923280 32 40 17
-0.114794 0.222646 1.938448 66 101 32
-0.120698 0.215209 1.936026 46 75 28
-0.114257 0.214036 1.933753 65 99 31
-0.120177 0.206443 1.931464 46 74 28
-0.132044 0.193191 1.937856 60 85 74
-0.130298 0.188237 1.930371 42 61 51
-0.148300 0.122606 1.935315 33 65 33
-0.140239 0.127948 1.932540 54 95 36
-0.156306 0.108687 1.934055 57 100 31
-0.143106 0.108873 1.935283 39 55 22
-0.128297 0.100872 1.930833 57 60 27
-0.126638 0.107076 1.937521 27 30 14
-0.199216 0.095319 1.938248 8 11 4
-0.194120 0.096149 1.935076 24 36 17
-0.143542 0.096361 1.933749 33 31 12
-0.131486 0.093803 1.934962 63 74 28
-0.126076 0.092145 1.937330 59 72 24
-0.110644 0.097307 1.934128 15 11 8
-0.199478 0.084853 1.936449 62 84 33
-0.197337 0.088771 1.932417 43 53 23
-0.176338 0.081868 1.935204 65 108 35
-0.164355 0.085567 1.935426 52 82 25
-0.154253 0.084473 1.930365 9 11 9
-0.139641 0.085568 1.930412 43 52 12
-0.134080 0.084566 1.934793 55 80 15
-0.121636 0.085496 1.933910 60 88 18
-0.113498 0.085141 1.937039 40 38 23
-0.206377 0.071619 1.934768 66 97 31
-0.190560 0.072987 1.932548 1 3 3
-0.181867 0.072669 1.935589 33 49 20
-0.171186 0.073648 1.934533 36 58 25
-0.130223 0.075120 1.932837 54 65 26
-0.125569 0.074708 1.935002 25 19 10
-0.113864 0.075813 1.934327 54 75 20
-0.061400 0.074681 1.931255 26 25 14
-0.212313 0.066586 1.934371 49 72 24
-0.178449 0.064182 1.935933 33 37 20
-0.172341 0.069077 1.935450 30 38 18
-0.162219 0.063557 1.934266 46 63 17
-0.153140 0.066629 1.933872 76 108 26
-0.140618 0.067867 1.935766 61 85 27
-0.131537 0.062476 1.933675 58 79 22
-0.124812 0.065890 1.934649 38 44 19
-0.113040 0.064763 1.936085 32 40 16
-0.103305 0.062357 1.936153 6 4 4
-0.093400 0.062887 1.935289 38 49 22
-0.083230 0.062446 1.934165 46 48 17
-0.068373 0.066987 1.935405 44 48 18
-0.060050 0.064849 1.936530 26 28 10
-0.201380 0.059275 1.935486 3 5 2
-0.168446 0.056899 1.935542 51 68 34
-0.151436 0.056796 1.935409 66 88 33
-0.144246 0.056284 1.933469 59 75 27
-0.132628 0.055400 1.935668 52 71 19
-0.123125 0.052335 1.935483 44 49 20
-0.113112 0.054014 1.935179 47 62 24
-0.102822 0.055889 1.934541 45 48 23
-0.089936 0.055203 1.936998 17 16 9
-0.084121 0.054014 1.934076 25 28 12
-0.072240 0.052278 1.937590 13 13 8
-0.194798 0.049866 1.933503 29 44 19
-0.159258 0.046928 1.935356 60 88 31
-0.151653 0.042754 1.932780 38 55 19
-0.141288 0.043690 1.935569 54 77 22
-0.133448 0.045689 1.935426 61 90 23
-0.122259 0.045586 1.935129 58 81 26
-0.113183 0.044886 1.935043 56 80 28
-0.103335 0.045810 1.935674 58 78 31
-0.092713 0.044072 1.935122 36 44 18
-0.085285 0.044792 1.934055 34 36 15
-0.074734 0.043273 1.936052 9 9 4
-0.064213 0.041794 1.938055 19 20 11
-0.200793 0.034953 1.935438 50 71 27
-0.189027 0.032545 1.932425 63 101 40
-0.186737 0.040265 1.933152 57 90 37
-0.170942 0.032005 1.936572 54 70 26
-0.163326 0.034421 1.934316 28 38 11
-0.151198 0.035246 1.935695 46 63 16
-0.142970 0.035549 1.935009 51 73 21
-0.132097 0.036278 1.935920 58 88 26
-0.123126 0.034954 1.934372 59 88 27
-0.112165 0.035022 1.935378 62 92 30
-0.102265 0.034752 1.934675 59 84 28
-0.093433 0.035173 1.935244 44 57 20
-0.083924 0.035768 1.934594 27 30 12
-0.077367 0.034721 1.937028 27 24 11
-0.063144 0.034872 1.933550 42 37 19
-0.191910 0.025518 1.934357 31 41 15
-0.182016 0.025730 1.935246 35 41 13
-0.174357 0.024138 1.932115 50 50 23
-0.162495 0.024334 1.935732 49 64 19
-0.152025 0.025237 1.934674 40 56 16
-0.143597 0.026076 1.935828 43 65 16
-0.132302 0.025654 1.934740 46 72 17
-0.122934 0.025202 1.935199 53 79 21
-0.112375 0.025330 1.934663 61 89 28
-0.103288 0.025146 1.935769 60 85 31
-0.092985 0.027222 1.934933 49 63 24
-0.085178 0.025627 1.934388 36 40 15
-0.074596 0.023324 1.939446 10 13 5
-0.209500 0.018922 1.935516 4 4 2
-0.205830 0.017881 1.930512 3 3 2
-0.189379 0.016634 1.932938 23 27 13
-0.181581 0.015393 1.936382 28 32 14
-0.172447 0.014445 1.935662 42 48 19
-0.162726 0.015626 1.935049 50 70 24
-0.151974 0.015708 1.935211 51 75 21
-0.141558 0.014821 1.934942 42 62 12
-0.132306 0.016241 1.935159 44 66 16
-0.122306 0.016413 1.934941 52 76 22
-0.113046 0.016360 1.934590 63 92 30
-0.104236 0.017138 1.936359 59 81 28
-0.092666 0.016602 1.935337 57 77 21
-0.084887 0.016594 1.935818 35 42 12
-0.073062 0.016067 1.933712 23 26 10
-0.180986 0.004821 1.936897 26 30 12
-0.172390 0.005259 1.935719 37 42 16
-0.163297 0.005453 1.935580 49 73 22
-0.153281 0.005366 1.934522 55 80 25
-0.142326 0.006160 1.934649 44 67 14
-0.131171 0.007402 1.935038 39 60 10
-0.123333 0.005913 1.935884 51 77 19
-0.114708 0.006639 1.934328 53 74 23
-0.101916 0.005120 1.934351 68 96 30
-0.090525 0.007785 1.939788 17 26 8
-0.078654 0.003845 1.938453 49 57 22
-0.077616 0.001039 1.932970 51 58 22
-0.190795 -0.001489 1.934903 19 18 9
-0.181444 -0.005372 1.934181 38 37 14
-0.172349 -0.004055 1.935192 39 37 15
-0.162747 -0.003181 1.935192 44 55 16
-0.153423 -0.003671 1.935159 58 81 21
-0.143646 -0.003120 1.934925 65 92 27
-0.133843 -0.001769 1.936336 44 71 12
-0.124888 -0.005312 1.934622 44 67 18
-0.112093 -0.003007 1.934337 51 70 24
-0.102203 -0.004223 1.934635 39 49 16
-0.093284 -0.007810 1.932000 22 20 8
-0.188581 -0.013834 1.934386 10 11 6
-0.180016 -0.012812 1.937022 40 44 14
-0.171934 -0.013396 1.936373 34 33 14
-0.163797 -0.014322 1.935669 34 46 15
-0.152554 -0.014121 1.935422 55 78 20
-0.143131 -0.012717 1.934205 45 68 15
-0.133177 -0.014933 1.935802 56 87 23
-0.121427 -0.016268 1.934699 43 54 21
-0.117719 -0.010896 1.936949 55 90 28
-0.181504 -0.025952 1.934432 27 29 13
-0.173240 -0.022815 1.937159 32 45 12
-0.163800 -0.020362 1.934626 47 65 19
-0.155565 -0.021379 1.936910 51 75 16
-0.144992 -0.025983 1.932291 50 70 15
-0.120802 -0.024705 1.934666 56 75 30
-0.113745 -0.025963 1.935215 55 82 29
-0.068575 -0.024649 1.936683 8 7 5
-0.062067 -0.023670 1.937898 37 36 20
-0.174049 -0.030872 1.931878 6 11 3
-0.153706 -0.033149 1.932935 68 98 26
-0.143963 -0.033236 1.938298 54 65 24
-0.100732 -0.038440 1.934923 37 52 20
-0.069421 -0.033688 1.934225 31 32 16
-0.086227 -0.054259 1.932849 19 24 11
-0.122011 0.225820 1.947006 45 71 26
-0.115801 0.227040 1.946702 64 99 31
-0.121236 0.219341 1.940513 47 76 28
-0.138794 0.181839 1.947652 63 88 71
-0.083889 0.185059 1.947281 37 51 31
-0.136011 0.171778 1.945971 44 67 46
-0.133519 0.135458 1.940321 68 117 41
-0.149284 0.122859 1.947988 41 73 41
-0.141572 0.130063 1.943154 58 99 40
-0.125825 0.111703 1.945597 18 22 7
-0.165534 0.104847 1.948950 66 113 34
-0.152723 0.110325 1.946063 52 90 34
-0.139142 0.102663 1.945087 33 33 18
-0.132484 0.110089 1.940105 15 14 10
-0.205055 0.096186 1.949472 47 62 40
-0.181728 0.095593 1.942093 49 85 31
-0.169074 0.091296 1.940097 47 73 29
-0.161363 0.100555 1.940483 34 63 29
-0.142437 0.098367 1.942443 28 30 15
-0.136422 0.093084 1.944272 51 59 22
-0.127309 0.091920 1.945616 49 61 19
-0.202198 0.086193 1.944841 61 83 35
-0.178155 0.083549 1.945378 66 111 34
-0.168454 0.090038 1.948980 56 90 36
-0.162258 0.085426 1.946999 60 92 23
-0.150278 0.086403 1.941443 3 5 4
-0.142013 0.083603 1.943997 40 49 12
-0.136645 0.085120 1.944559 47 64 22
-0.123090 0.084865 1.942556 61 88 17
-0.208771 0.071606 1.948999 62 93 28
-0.207627 0.071626 1.941839 65 94 30
-0.191825 0.074775 1.943526 9 18 10
-0.183254 0.075432 1.947497 39 66 23
-0.174708 0.080058 1.943941 51 84 31
-0.155222 0.072218 1.944928 74 107 24
-0.140147 0.071396 1.949311 48 74 27
-0.132723 0.075028 1.941708 42 52 23
-0.112053 0.074715 1.944532 27 37 9
-0.097469 0.076391 1.949862 29 26 17
-0.209687 0.065455 1.948893 46 70 25
-0.183570 0.064108 1.941463 11 11 6
-0.172379 0.068792 1.946211 40 56 32
-0.164614 0.063185 1.944750 48 67 18
-0.154182 0.067644 1.940854 75 107 25
-0.141634 0.067347 1.943918 60 87 29
-0.132703 0.062012 1.944766 59 75 24
-0.123019 0.067082 1.944191 40 44 21
-0.112983 0.065186 1.945734 30 47 8
-0.104128 0.064118 1.945567 23 23 11
-0.093635 0.063089 1.949023 24 33 10
-0.200841 0.054136 1.944553 20 31 13
-0.169635 0.056098 1.949417 32 35 15
-0.165446 0.055166 1.946256 42 49 21
-0.151561 0.055415 1.946500 68 93 31
-0.141815 0.055459 1.945329 48 63 23
-0.133145 0.055337 1.946254 44 55 15
-0.123029 0.055245 1.944912 48 55 22
-0.113571 0.054472 1.944824 40 54 18
-0.102219 0.058068 1.946485 31 30 14
-0.094067 0.055573 1.944378 12 13 8
-0.066475 0.051786 1.943106 3 3 3
-0.200188 0.040811 1.943431 63 92 31
-0.191399 0.043020 1.944832 57 88 35
-0.160072 0.047400 1.945514 57 85 31
-0.153576 0.043235 1.944564 32 47 14
-0.142943 0.043072 1.945938 54 76 22
-0.133125 0.045738 1.945157 62 89 26
-0.123207 0.045109 1.944292 63 91 31
-0.112386 0.046036 1.944890 57 80 28
-0.102878 0.044462 1.945467 48 65 24
-0.093528 0.044288 1.943971 37 44 17
-0.084435 0.044126 1.944798 25 26 12
-0.075036 0.046098 1.945468 19 17 10
-0.064497 0.042399 1.949542 30 31 16
-0.207506 0.036428 1.942175 45 60 21
-0.192945 0.033767 1.944548 62 100 39
-0.172226 0.032033 1.943587 55 71 27
-0.163440 0.037359 1.944782 35 48 10
-0.152593 0.035727 1.945735 44 62 16
-0.143753 0.035382 1.944967 49 71 20
-0.133016 0.036313 1.945818 56 86 24
-0.123022 0.036049 1.945665 59 90 29
-0.112637 0.035454 1.946001 62 93 30
-0.102284 0.035239 1.944895 61 87 30
-0.092225 0.035498 1.944872 42 53 20
-0.083533 0.035851 1.944033 26 27 12
-0.077696 0.033041 1.946179 29 25 11
-0.188156 0.023730 1.948177 14 14 6
-0.180195 0.024924 1.945730 39 40 16
-0.172690 0.023311 1.941653 45 60 20
-0.162565 0.025096 1.946078 51 67 20
-0.152143 0.026107 1.945390 41 56 17
-0.143048 0.024986 1.945419 40 60 13
-0.132597 0.026429 1.944426 50 75 19
-0.122896 0.024402 1.945507 53 79 24
-0.112492 0.025399 1.944906 61 91 30
-0.103303 0.025989 1.944730 59 84 30
-0.092658 0.027295 1.945179 48 60 23
-0.084287 0.025440 1.943772 30 31 14
-0.075646 0.025063 1.945815 15 16 9
-0.190421 0.016452 1.945793 17 19 8
-0.181855 0.015747 1.946004 34 39 13
-0.173153 0.015599 1.944884 44 55 19
-0.163402 0.016729 1.945059 53 76 23
-0.153317 0.015926 1.944953 53 77 21
-0.142655 0.015848 1.944727 40 60 13
-0.132122 0.015739 1.945131 43 65 15
-0.122750 0.015974 1.945026 55 80 24
-0.113191 0.016481 1.945511 65 94 29
-0.103581 0.016339 1.945286 65 89 30
-0.092740 0.017280 1.946161 47 60 19
-0.084081 0.015482 1.946368 52 72 21
-0.180401 0.005695 1.945415 29 37 15
-0.173513 0.005572 1.945170 36 45 16
-0.162414 0.005379 1.944685 52 76 23
-0.152761 0.005505 1.944511 54 81 22
-0.143580 0.006538 1.944636 42 66 14
-0.132302 0.006789 1.944216 38 60 10
-0.122536 0.006904 1.943793 52 75 22
-0.112766 0.005751 1.945383 51 70 24
-0.100146 0.001215 1.947370 43 64 23
-0.079696 0.006491 1.944070 41 50 17
-0.190354 -0.003036 1.945955 24 23 13
-0.179770 -0.003857 1.944786 29 29 14
-0.172229 -0.004391 1.944640 33 34 14
-0.162501 -0.003327 1.944800 45 62 17
-0.152866 -0.003231 1.944935 61 85 24
-0.143743 -0.003319 1.944449 62 91 25
-0.131781 -0.004314 1.945620 46 76 11
-0.122517 -0.005663 1.944855 52 73 27
-0.113317 -0.002607 1.945444 55 78 25
-0.104982 -0.004078 1.944205 47 56 19
-0.092051 -0.000358 1.945537 28 26 16
-0.062687 -0.007493 1.947445 6 3 4
-0.182381 -0.014957 1.946161 26 29 11
-0.172966 -0.013095 1.945564 32 37 14
-0.162575 -0.014488 1.944537 46 62 19
-0.151810 -0.014189 1.946409 59 82 27
-0.142862 -0.014192 1.945104 56 80 20
-0.132464 -0.013980 1.945312 55 86 20
-0.124297 -0.015326 1.946535 50 75 23
-0.117311 -0.013021 1.944282 63 85 30
-0.102366 -0.010950 1.947160 41 38 12
-0.062941 -0.012808 1.941024 30 27 17
-0.181431 -0.024835 1.944480 7 8 4
-0.171193 -0.021241 1.943276 40 58 15
-0.163000 -0.020211 1.945673 51 66 20
-0.152900 -0.025264 1.945218 56 81 18
-0.145190 -0.025248 1.945221 49 69 20
-0.122141 -0.023397 1.943429 53 72 29
-0.115001 -0.025995 1.949091 55 80 30
-0.056436 -0.025151 1.947926 48 52 27
-0.142895 -0.033924 1.941482 37 53 10
-0.131983 -0.033722 1.945979 41 72 12
-0.102621 -0.035201 1.941406 34 49 17
-0.086278 -0.056729 1.944173 12 16 7
-0.116671 0.232682 1.953901 64 100 32
-0.232912 0.221841 1.954945 23 37 29
-0.123037 0.230033 1.955413 46 71 26
-0.228672 0.205986 1.953378 23 30 26
-0.089399 0.191031 1.950129 8 11 7
-0.223677 0.174431 1.957623 39 43 35
-0.143084 0.133155 1.952688 61 102 42
-0.149236 0.112981 1.956995 46 81 38
-0.175135 0.105054 1.959566 66 116 40
-0.157817 0.109787 1.958435 56 98 32
-0.138851 0.104356 1.955279 35 58 31
-0.213427 0.095691 1.956016 60 81 48
-0.191215 0.094624 1.953952 40 68 36
-0.182312 0.094362 1.956166 51 89 35
