ply
format ascii 1.0
element vertex 1254
property float x
property float y
property float z
property uchar red
property uchar green
property uchar blue
end_header
0.086003 -0.138620 2.804988 100 27 17
0.096016 -0.138235 2.805032 100 70 43
0.106267 -0.135565 2.805301 100 65 29
0.061934 -0.124688 2.805221 100 80 49
0.069958 -0.131050 2.804554 100 10 6
0.077464 -0.129082 2.805166 100 54 33
0.085555 -0.127536 2.805258 100 128 70
0.097499 -0.129141 2.804583 100 133 63
0.104207 -0.128931 2.804836 100 127 61
0.112833 -0.127399 2.808174 100 123 43
0.063706 -0.121483 2.805336 100 148 86
0.077671 -0.121123 2.804934 100 110 53
0.088314 -0.120241 2.804869 100 133 66
0.096807 -0.117671 2.804774 100 136 70
0.105067 -0.117583 2.804758 100 118 57
0.113791 -0.114905 2.804323 100 3 3
0.055364 -0.112708 2.806164 100 150 82
0.088729 -0.113155 2.804123 100 129 51
0.098880 -0.110698 2.805343 100 130 61
0.106853 -0.108421 2.805212 100 132 65
0.116989 -0.107083 2.805130 100 79 39
0.125241 -0.106519 2.805626 100 47 27
0.086956 -0.099376 2.804513 100 78 43
0.098608 -0.099897 2.805782 100 85 45
0.109170 -0.099944 2.804542 100 116 60
0.116310 -0.099118 2.805276 100 79 42
0.124961 -0.098227 2.805484 100 59 30
0.100466 -0.088932 2.802957 100 66 37
0.107980 -0.090411 2.805868 100 36 20
0.116971 -0.090780 2.804933 100 14 9
0.126106 -0.090495 2.804849 100 47 25
0.119407 -0.083780 2.807287 100 0 0
0.087535 -0.145056 2.814896 100 2 2
0.095183 -0.145072 2.814060 100 0 0
0.067231 -0.138820 2.815688 100 1 1
0.077296 -0.136739 2.815273 100 15 9
0.086522 -0.138308 2.814859 100 36 21
0.096911 -0.138653 2.814714 100 76 44
0.106778 -0.135697 2.814718 100 107 58
0.061191 -0.124735 2.818249 100 102 67
0.069911 -0.131010 2.814023 100 28 17
0.077762 -0.129415 2.815065 100 61 37
0.085961 -0.127729 2.815099 100 130 73
0.097671 -0.128275 2.815524 100 138 70
0.106417 -0.130024 2.814740 100 133 63
0.113076 -0.127436 2.814744 100 125 45
0.057440 -0.114217 2.816257 100 150 84
0.067639 -0.119484 2.814540 100 118 59
0.076792 -0.121302 2.815165 100 100 47
0.088411 -0.120788 2.814578 100 133 67
0.096881 -0.117807 2.814934 100 137 70
0.105196 -0.117207 2.814939 100 117 58
0.056992 -0.113811 2.811823 100 150 84
0.090120 -0.113193 2.812363 100 128 48
0.099403 -0.111286 2.814822 100 125 59
0.107353 -0.108497 2.815002 100 133 64
0.116222 -0.106814 2.815215 100 97 48
0.124232 -0.106938 2.813331 100 18 10
0.086630 -0.100428 2.815419 100 77 42
0.099290 -0.098690 2.815124 100 53 28
0.109628 -0.100172 2.815046 100 121 63
0.116614 -0.099239 2.815147 100 73 40
0.126343 -0.099327 2.814938 100 63 32
0.099031 -0.089013 2.814227 100 56 32
0.109271 -0.089682 2.814399 100 37 24
0.116881 -0.091224 2.814972 100 10 7
0.126598 -0.089856 2.814959 100 41 24
0.098514 -0.082550 2.817582 100 130 77
0.088996 -0.145750 2.824502 100 3 2
0.095353 -0.146612 2.825865 100 0 0
0.067976 -0.138321 2.825828 100 1 1
0.077313 -0.137278 2.825055 100 18 12
0.086404 -0.138226 2.825099 100 48 28
0.096750 -0.139360 2.825037 100 72 42
0.106247 -0.136057 2.825489 100 116 62
0.070252 -0.131452 2.824860 100 58 36
0.077965 -0.130123 2.824839 100 57 34
0.086259 -0.128185 2.825267 100 131 74
0.096276 -0.128428 2.825510 100 136 65
0.105891 -0.129359 2.824865 100 131 58
0.113308 -0.126426 2.825550 100 130 53
0.057504 -0.114512 2.823534 100 149 83
0.069175 -0.120527 2.824080 100 120 58
0.078069 -0.121007 2.824690 100 95 43
0.088394 -0.121539 2.824588 100 129 65
0.096713 -0.118434 2.825256 100 135 69
0.105115 -0.117232 2.824625 100 123 59
0.114767 -0.121160 2.825600 100 117 40
0.127088 -0.115024 2.824166 100 123 61
0.099291 -0.110285 2.824943 100 117 51
0.107412 -0.108863 2.824826 100 133 65
0.116324 -0.107172 2.825261 100 93 45
0.124922 -0.106941 2.824649 100 65 36
0.085559 -0.100876 2.825185 100 76 42
0.097240 -0.099164 2.824404 100 61 33
0.109618 -0.100999 2.824893 100 121 63
0.116648 -0.098907 2.824818 100 74 41
0.126144 -0.098991 2.825359 100 59 31
0.099606 -0.089804 2.823905 100 48 28
0.109058 -0.090692 2.824874 100 24 17
0.117511 -0.091501 2.825077 100 7 5
0.127961 -0.089708 2.825164 100 44 26
0.099653 -0.082518 2.826891 100 130 79
0.121996 -0.083003 2.821496 100 1 1
0.066469 -0.144671 2.834995 100 0 1
0.087765 -0.145410 2.835535 100 11 7
0.095625 -0.146779 2.834456 100 18 12
0.068496 -0.137719 2.834326 100 1 1
0.077483 -0.136885 2.835291 100 25 16
0.085972 -0.138069 2.835468 100 56 34
0.097058 -0.139604 2.834675 100 86 49
0.105732 -0.136657 2.835552 100 125 65
0.115555 -0.141776 2.832019 100 0 1
0.070621 -0.128750 2.834240 100 77 41
0.078079 -0.130550 2.834750 100 64 36
0.086724 -0.128847 2.835114 100 131 72
0.094663 -0.127067 2.835438 100 138 68
0.105574 -0.128624 2.834856 100 133 60
0.112660 -0.130052 2.835030 100 133 61
0.127966 -0.128768 2.837414 100 148 83
0.060694 -0.116596 2.832453 100 149 83
0.069462 -0.118971 2.835858 100 104 47
0.076827 -0.121961 2.834574 100 103 48
0.089560 -0.121787 2.835133 100 127 61
0.097141 -0.119127 2.834954 100 134 68
0.105477 -0.117405 2.835341 100 127 62
0.114001 -0.120649 2.834190 100 105 41
0.123833 -0.114604 2.833936 100 125 59
0.100205 -0.109502 2.834518 100 107 47
0.107629 -0.109423 2.834755 100 133 64
0.116801 -0.106977 2.834839 100 99 50
0.124235 -0.106374 2.835558 100 66 35
0.084705 -0.101129 2.832578 100 76 41
0.095521 -0.099496 2.834589 100 79 42
0.109384 -0.100789 2.834182 100 118 61
0.117213 -0.099838 2.834749 100 73 41
0.126261 -0.098814 2.834647 100 57 31
0.100169 -0.091440 2.832642 100 35 21
0.106922 -0.090078 2.834827 100 31 21
0.117963 -0.090886 2.835088 100 5 3
0.125627 -0.090494 2.834774 100 25 16
0.095773 -0.080227 2.832528 100 130 76
0.068013 -0.145369 2.844242 100 1 2
0.087565 -0.146946 2.845414 100 10 7
0.097037 -0.145558 2.844529 100 38 24
0.103016 -0.149486 2.845100 100 5 3
0.069128 -0.138498 2.844904 100 8 6
0.077793 -0.136984 2.845456 100 21 14
0.086137 -0.137924 2.845248 100 63 37
0.097061 -0.139715 2.844117 100 87 49
0.106008 -0.136408 2.844760 100 140 69
0.070157 -0.128237 2.844682 100 101 56
0.078572 -0.130015 2.844813 100 74 40
0.086843 -0.129265 2.844602 100 129 71
0.094985 -0.127975 2.845362 100 137 68
0.105627 -0.128099 2.845407 100 135 62
0.113490 -0.130958 2.845994 100 135 64
0.128197 -0.128565 2.846740 100 144 78
0.067507 -0.120000 2.843349 100 75 42
0.077667 -0.121956 2.844956 100 98 46
0.089248 -0.121231 2.844167 100 117 58
0.097588 -0.119561 2.845007 100 136 67
0.105586 -0.117518 2.844982 100 128 64
0.113321 -0.121890 2.847032 100 129 52
0.126285 -0.118193 2.845997 100 129 63
0.100276 -0.109197 2.845254 100 111 51
0.107736 -0.109738 2.844769 100 132 64
0.116362 -0.107151 2.845310 100 103 52
0.125710 -0.108755 2.845783 100 94 44
0.091830 -0.100172 2.842826 100 74 39
0.095832 -0.101937 2.842736 100 55 28
0.108982 -0.100376 2.844813 100 102 53
0.117562 -0.100043 2.844943 100 70 39
0.126084 -0.099084 2.844726 100 49 26
0.107252 -0.091614 2.844591 100 33 21
0.118137 -0.091238 2.843996 100 11 8
0.127698 -0.088623 2.844170 100 16 11
0.097078 -0.079018 2.843974 100 129 75
0.112159 -0.083953 2.848404 100 78 54
0.106367 -0.155127 2.858119 100 0 0
0.068134 -0.145942 2.858037 100 1 3
0.088198 -0.147646 2.854770 100 14 10
0.096519 -0.146278 2.854469 100 47 30
0.103302 -0.151610 2.854518 100 8 5
0.069665 -0.140276 2.853434 100 7 5
0.077918 -0.137580 2.855512 100 23 15
0.086200 -0.137738 2.855206 100 74 44
0.096989 -0.139119 2.854425 100 109 60
0.105586 -0.137626 2.854799 100 141 74
0.113924 -0.136099 2.854214 100 125 48
0.070474 -0.128951 2.853568 100 116 64
0.078427 -0.130551 2.854978 100 81 41
0.086969 -0.129612 2.854974 100 129 69
0.095510 -0.127975 2.854816 100 137 69
0.105774 -0.127997 2.855157 100 136 61
0.113637 -0.126904 2.854232 100 136 61
0.128380 -0.127966 2.855304 100 139 69
0.132517 -0.126250 2.850722 100 127 50
0.061123 -0.117689 2.856407 100 149 82
0.078903 -0.122234 2.854710 100 100 48
0.087872 -0.121338 2.854460 100 123 61
0.097635 -0.119971 2.855085 100 134 67
0.106000 -0.117431 2.854887 100 131 64
0.114119 -0.117362 2.855485 100 138 66
0.126008 -0.119065 2.855353 100 133 66
0.100448 -0.109470 2.855110 100 92 40
0.108608 -0.110021 2.854845 100 134 65
0.116166 -0.107099 2.855258 100 112 59
0.125634 -0.108813 2.855451 100 63 30
0.134969 -0.110173 2.855259 100 118 59
0.091240 -0.103998 2.859162 100 0 1
0.097026 -0.103766 2.853770 100 19 11
0.109093 -0.099656 2.854709 100 86 44
0.117571 -0.100602 2.854697 100 73 41
0.125920 -0.099304 2.855009 100 36 20
0.111580 -0.084073 2.856055 100 99 70
0.119883 -0.090087 2.853578 100 2 1
0.128694 -0.089965 2.855710 100 18 12
0.092811 -0.075112 2.850937 100 130 76
0.103109 -0.078351 2.857706 100 126 85
0.115706 -0.082840 2.859400 100 21 16
0.088426 -0.072040 2.850146 100 131 74
0.107530 -0.155851 2.865550 100 0 0
0.069305 -0.146690 2.863462 100 1 1
0.078125 -0.144722 2.869528 100 29 18
0.087996 -0.148817 2.865874 100 8 6
0.096029 -0.147614 2.865048 100 49 32
0.103807 -0.150223 2.866974 100 21 13
0.070579 -0.140092 2.865539 100 2 2
0.078390 -0.137760 2.865261 100 25 16
0.085716 -0.137889 2.864890 100 74 43
0.096853 -0.138296 2.865172 100 126 65
0.106470 -0.138624 2.864827 100 144 82
0.114731 -0.139316 2.863620 100 127 51
0.077807 -0.130174 2.864411 100 99 50
0.087018 -0.129814 2.864949 100 125 66
0.095566 -0.127825 2.865193 100 137 69
0.105731 -0.128339 2.864998 100 133 58
0.113422 -0.129020 2.865155 100 141 71
0.128355 -0.126348 2.865441 100 136 63
0.061008 -0.117804 2.861396 100 150 83
0.067041 -0.121093 2.860048 100 151 84
0.079170 -0.121876 2.863659 100 49 26
0.089581 -0.121816 2.864621 100 122 59
0.097802 -0.120546 2.864941 100 134 65
0.106001 -0.117580 2.865193 100 133 63
0.115622 -0.117919 2.866265 100 140 70
0.126452 -0.117667 2.865494 100 134 69
0.132596 -0.117768 2.861811 100 89 60
0.089204 -0.108579 2.866835 100 65 27
0.100194 -0.109451 2.865489 100 113 48
0.108762 -0.110156 2.864875 100 134 64
0.116654 -0.107546 2.864849 100 117 62
0.125782 -0.107403 2.864910 100 60 33
0.135374 -0.109661 2.865250 100 99 51
0.108615 -0.099126 2.864371 100 108 55
0.118024 -0.100909 2.864547 100 79 45
0.125837 -0.098830 2.865067 100 22 12
0.111129 -0.084292 2.863884 100 118 82
0.118830 -0.091978 2.864387 100 1 1
0.128729 -0.089911 2.865096 100 12 8
0.101159 -0.077196 2.860492 100 130 83
0.112848 -0.081354 2.866500 100 55 40
0.108726 -0.156592 2.872998 100 0 0
0.069916 -0.146918 2.875179 100 0 1
0.077243 -0.145188 2.876108 100 0 1
0.087999 -0.148256 2.874717 100 9 6
0.096758 -0.148001 2.875527 100 56 36
0.104138 -0.150555 2.877811 100 30 20
0.070166 -0.140384 2.874436 100 2 3
0.078971 -0.137691 2.874701 100 33 21
0.085666 -0.137942 2.875090 100 76 45
0.096291 -0.138950 2.875496 100 128 68
0.106921 -0.138314 2.874817 100 142 77
0.114800 -0.137573 2.874104 100 127 50
0.078196 -0.129929 2.874904 100 107 51
0.087156 -0.130479 2.874711 100 124 66
0.095601 -0.127997 2.875215 100 136 67
0.105505 -0.128641 2.875241 100 135 62
0.115895 -0.128963 2.875541 100 132 69
0.125412 -0.126945 2.875211 100 77 38
0.070999 -0.123278 2.875025 100 131 55
0.076052 -0.122726 2.872558 100 49 23
0.086858 -0.122983 2.875190 100 89 48
0.098206 -0.120730 2.874396 100 129 61
0.106320 -0.118105 2.875158 100 134 63
0.115147 -0.116629 2.875468 100 142 72
0.126776 -0.118235 2.874979 100 136 67
0.085852 -0.105925 2.870847 100 1 1
0.100250 -0.109832 2.873670 100 106 44
0.108917 -0.110546 2.874891 100 135 64
0.116373 -0.107716 2.875095 100 125 66
0.126147 -0.107407 2.875034 100 73 38
0.100433 -0.099758 2.877547 100 129 64
0.108264 -0.099924 2.874243 100 131 67
0.118255 -0.101385 2.874820 100 98 55
0.125916 -0.098989 2.874827 100 24 14
0.118604 -0.087217 2.877359 100 2 3
0.129380 -0.090139 2.874909 100 25 16
0.109960 -0.079844 2.873549 100 91 60
0.087294 -0.154524 2.883994 100 0 0
0.068867 -0.148002 2.885242 100 0 1
0.076668 -0.146715 2.886208 100 2 2
0.087641 -0.147131 2.885745 100 12 8
0.096125 -0.147606 2.884352 100 48 32
0.103244 -0.147664 2.885785 100 88 50
0.070071 -0.141714 2.885406 100 2 3
0.078673 -0.138393 2.884636 100 36 22
0.085894 -0.137933 2.885081 100 81 48
0.096760 -0.138827 2.885114 100 130 68
0.107523 -0.139045 2.884802 100 141 76
0.114829 -0.137675 2.884548 100 132 59
0.077658 -0.129666 2.884983 100 104 48
0.087559 -0.130765 2.884861 100 127 68
0.095772 -0.128440 2.884802 100 134 66
0.105672 -0.128108 2.885112 100 136 64
0.117574 -0.128023 2.885479 100 132 75
0.127076 -0.124994 2.885834 100 36 17
0.070310 -0.123017 2.886281 100 138 62
0.088430 -0.122705 2.885620 100 60 31
0.098990 -0.121417 2.884861 100 132 61
0.107012 -0.118007 2.885037 100 135 63
0.115555 -0.116784 2.885698 100 140 71
0.125288 -0.118549 2.885077 100 126 63
0.136924 -0.117298 2.884572 100 128 67
0.090874 -0.111111 2.888324 100 126 53
0.099715 -0.111186 2.884701 100 121 53
0.108868 -0.110006 2.884642 100 136 63
0.116406 -0.107791 2.885231 100 129 67
0.125511 -0.107630 2.884959 100 76 42
0.099147 -0.098894 2.886330 100 124 63
0.107180 -0.100068 2.884904 100 102 51
0.118747 -0.101876 2.884259 100 105 58
0.125970 -0.099267 2.885095 100 24 14
0.113501 -0.090497 2.885224 100 0 3
0.130669 -0.090364 2.884206 100 26 16
0.071302 -0.157019 2.898757 100 1 2
0.095578 -0.155066 2.897275 100 0 1
0.108593 -0.156842 2.895947 100 1 1
0.056472 -0.146187 2.896081 100 0 2
0.066791 -0.145626 2.896091 100 0 1
0.078359 -0.146501 2.895562 100 3 2
0.086792 -0.146717 2.895373 100 15 10
0.096084 -0.148232 2.895120 100 41 27
0.104404 -0.147295 2.895594 100 109 63
0.070881 -0.142669 2.892670 100 0 1
0.078757 -0.138634 2.894484 100 42 25
0.086031 -0.137684 2.895179 100 87 51
0.096267 -0.138464 2.894935 100 125 63
0.106887 -0.139662 2.894513 100 141 72
0.114158 -0.137267 2.894888 100 133 60
0.078769 -0.130823 2.894805 100 111 51
0.087674 -0.130682 2.895045 100 128 66
0.096513 -0.128701 2.895038 100 134 66
0.105587 -0.128105 2.894979 100 135 62
0.117454 -0.128343 2.894557 100 137 64
0.127648 -0.124305 2.892461 100 71 32
0.068521 -0.122813 2.897518 100 138 62
0.079614 -0.123964 2.894814 100 0 1
0.088561 -0.123266 2.893529 100 48 31
0.099837 -0.121660 2.894438 100 133 61
0.107066 -0.118650 2.895161 100 135 63
0.115499 -0.117752 2.895370 100 138 69
0.125624 -0.118530 2.895937 100 108 54
0.137065 -0.117077 2.893468 100 99 53
0.090176 -0.111576 2.894582 100 117 48
0.098092 -0.110528 2.894786 100 141 64
0.109436 -0.110441 2.894568 100 136 63
0.116828 -0.108291 2.894953 100 130 67
0.124967 -0.108105 2.894805 100 80 41
0.085249 -0.099559 2.899852 100 137 64
0.097229 -0.098586 2.895620 100 133 68
0.108084 -0.099706 2.894659 100 97 50
0.118768 -0.102041 2.894446 100 106 58
0.125653 -0.099902 2.894824 100 28 16
0.117464 -0.091103 2.896025 100 19 13
0.130595 -0.089347 2.894769 100 38 22
0.069219 -0.158173 2.906235 100 0 2
0.096133 -0.154915 2.906388 100 11 7
0.109563 -0.157488 2.905221 100 2 1
0.068713 -0.146424 2.905206 100 0 0
0.078736 -0.146463 2.905559 100 9 6
0.086905 -0.146984 2.905665 100 16 10
0.096295 -0.147596 2.905226 100 47 29
0.104624 -0.148085 2.905365 100 111 64
0.119318 -0.144111 2.903658 100 132 58
0.070019 -0.141162 2.903873 100 0 3
0.078872 -0.139354 2.904797 100 38 22
0.086580 -0.138236 2.905085 100 90 54
0.096224 -0.138157 2.904916 100 128 64
0.106518 -0.139359 2.904982 100 141 71
0.115626 -0.136744 2.905340 100 133 60
0.071209 -0.128270 2.908391 100 130 56
0.078661 -0.131242 2.905084 100 126 58
0.087955 -0.130934 2.905123 100 129 65
0.096751 -0.128984 2.905061 100 134 64
0.105869 -0.127611 2.904522 100 138 66
0.116961 -0.127935 2.905233 100 132 58
0.124417 -0.128369 2.906684 100 127 49
0.066699 -0.122308 2.904760 100 138 62
0.084392 -0.123791 2.903979 100 3 3
0.100758 -0.122322 2.903813 100 133 61
0.107654 -0.118761 2.904854 100 133 61
0.115890 -0.117451 2.905696 100 138 69
0.126150 -0.117845 2.905301 100 114 59
0.137639 -0.116600 2.903416 100 69 39
0.090250 -0.112247 2.904173 100 92 44
0.097829 -0.108953 2.905176 100 150 71
0.108829 -0.111485 2.905156 100 135 63
0.117295 -0.108943 2.904927 100 132 68
0.125528 -0.108569 2.905326 100 94 50
0.085957 -0.100014 2.905449 100 137 62
0.096456 -0.098729 2.904587 100 137 74
0.107873 -0.099131 2.903888 100 106 49
0.118536 -0.103005 2.904410 100 93 50
0.126414 -0.100479 2.904907 100 34 20
0.099078 -0.093795 2.905961 100 111 66
0.129968 -0.088441 2.904790 100 37 22
0.070375 -0.157272 2.911349 100 1 2
0.073792 -0.154651 2.916587 100 2 1
0.088771 -0.156113 2.917663 100 0 1
0.097050 -0.155376 2.915704 100 5 3
0.108957 -0.157275 2.912998 100 3 3
0.069103 -0.147117 2.911692 100 1 0
0.075453 -0.146576 2.915110 100 0 0
0.086278 -0.146908 2.915048 100 24 15
0.096571 -0.148459 2.914679 100 51 31
0.104952 -0.148375 2.915184 100 114 64
0.112523 -0.146652 2.910751 100 132 61
0.079152 -0.139859 2.915033 100 34 20
0.086756 -0.138794 2.915079 100 90 53
0.095650 -0.138353 2.915361 100 131 65
0.106540 -0.138816 2.915537 100 139 67
0.115486 -0.138175 2.913764 100 135 62
0.078788 -0.131296 2.915380 100 134 62
0.087796 -0.130928 2.914680 100 126 62
0.097091 -0.129904 2.915059 100 133 64
0.106068 -0.127442 2.914819 100 134 66
0.115560 -0.129058 2.915620 100 131 58
0.125249 -0.128372 2.913658 100 124 48
0.066476 -0.122762 2.912896 100 138 62
0.089718 -0.120351 2.915954 100 21 12
0.099713 -0.121883 2.915004 100 125 58
0.107615 -0.119455 2.914621 100 134 61
0.115642 -0.117293 2.914966 100 137 68
0.125885 -0.118075 2.915791 100 109 58
0.137948 -0.117962 2.915225 100 78 44
0.091031 -0.112217 2.915304 100 90 43
0.098713 -0.107658 2.914699 100 144 70
0.107626 -0.110763 2.915055 100 137 64
0.117242 -0.109656 2.915182 100 133 67
0.125794 -0.108501 2.915292 100 91 50
0.136881 -0.109689 2.915412 100 67 34
0.087670 -0.100158 2.915286 100 139 64
0.098546 -0.099530 2.915258 100 124 67
0.109119 -0.100117 2.914570 100 96 46
0.117558 -0.102700 2.914682 100 41 24
0.126671 -0.100373 2.914875 100 33 19
0.096536 -0.093051 2.915705 100 110 65
0.130021 -0.088483 2.915003 100 42 24
0.114360 -0.083997 2.919375 100 4 5
0.072229 -0.154832 2.921082 100 6 4
0.088261 -0.156036 2.926880 100 0 0
0.095876 -0.155849 2.924771 100 7 5
0.106665 -0.156199 2.923356 100 4 4
0.113508 -0.159903 2.927655 100 4 4
0.070564 -0.149449 2.925433 100 0 0
0.077413 -0.147569 2.925932 100 4 3
0.087187 -0.147384 2.925292 100 30 18
0.096255 -0.148618 2.924637 100 49 27
0.105046 -0.148313 2.924749 100 115 65
0.079622 -0.139870 2.924482 100 45 25
0.087039 -0.138976 2.925109 100 91 52
0.095839 -0.138117 2.925738 100 130 64
0.106878 -0.138905 2.924741 100 139 70
0.117880 -0.140595 2.924876 100 132 58
0.068137 -0.132433 2.927802 100 144 84
0.079542 -0.130929 2.924913 100 130 56
0.088157 -0.131256 2.924568 100 136 66
0.097665 -0.130079 2.924929 100 134 63
0.105607 -0.127785 2.925349 100 135 66
0.115085 -0.127553 2.924796 100 137 71
0.123788 -0.128021 2.924123 100 131 53
0.148255 -0.127162 2.925164 100 138 71
0.085985 -0.120637 2.925516 100 0 2
0.101844 -0.116533 2.923356 100 130 54
0.107907 -0.120256 2.924836 100 133 60
0.115721 -0.117738 2.925058 100 137 67
0.126494 -0.117687 2.924749 100 105 58
0.136323 -0.117635 2.925910 100 84 46
0.091728 -0.112200 2.924253 100 91 46
0.098192 -0.107229 2.924898 100 142 70
0.107510 -0.109779 2.924984 100 123 59
0.117790 -0.109885 2.924774 100 132 68
0.125862 -0.108993 2.925374 100 90 49
0.136954 -0.109555 2.925043 100 57 30
0.087688 -0.101474 2.926455 100 137 58
0.098948 -0.100517 2.924971 100 113 61
0.110065 -0.102882 2.924224 100 117 50
0.117103 -0.101793 2.925275 100 53 28
0.127090 -0.099815 2.925111 100 32 18
0.129441 -0.087720 2.924237 100 58 32
0.072848 -0.158953 2.938726 100 0 1
0.088098 -0.155497 2.935737 100 0 0
0.097734 -0.156838 2.935770 100 7 5
0.107714 -0.158151 2.936543 100 5 5
0.071373 -0.150758 2.937306 100 0 1
0.078381 -0.146468 2.934580 100 6 4
0.087149 -0.146989 2.935318 100 29 18
0.096309 -0.148649 2.935100 100 61 33
0.105760 -0.148711 2.934520 100 115 64
0.113496 -0.146410 2.936600 100 130 54
0.070576 -0.134121 2.937372 100 144 84
0.080153 -0.140151 2.934609 100 52 27
0.087104 -0.139428 2.934935 100 90 52
0.095885 -0.138137 2.935254 100 130 64
0.107086 -0.139067 2.933747 100 137 67
0.117204 -0.138870 2.934103 100 132 57
0.061093 -0.124698 2.936881 100 146 82
0.067895 -0.130433 2.933823 100 145 83
0.079641 -0.131618 2.934354 100 129 54
0.087955 -0.131234 2.935026 100 134 62
0.097793 -0.130943 2.934605 100 134 63
0.105835 -0.127982 2.935652 100 133 63
0.115418 -0.126901 2.934964 100 132 61
0.124680 -0.127442 2.935208 100 84 35
0.148251 -0.128972 2.936747 100 147 86
0.108371 -0.120060 2.934318 100 133 60
0.116216 -0.117978 2.935047 100 135 67
0.126274 -0.117582 2.934910 100 95 50
0.135996 -0.118650 2.935417 100 99 54
0.146823 -0.119027 2.934996 100 84 44
0.096391 -0.109112 2.935344 100 137 66
0.108410 -0.109144 2.934663 100 117 59
0.117953 -0.109628 2.934815 100 129 65
0.126329 -0.108322 2.935172 100 84 48
0.135771 -0.109796 2.934774 100 54 30
0.144941 -0.108237 2.935128 100 25 17
0.089123 -0.102293 2.935593 100 135 61
0.101628 -0.102016 2.934790 100 100 54
0.107956 -0.102921 2.937402 100 77 35
0.118435 -0.100569 2.934299 100 58 32
0.127852 -0.100222 2.934819 100 16 10
0.137025 -0.098017 2.934917 100 30 18
0.145565 -0.098260 2.934046 100 63 37
0.119850 -0.091776 2.932929 100 117 56
0.075713 -0.156528 2.945159 100 2 2
0.089278 -0.156073 2.945057 100 0 0
0.095195 -0.156670 2.944924 100 6 4
0.107816 -0.159093 2.945439 100 12 9
0.078753 -0.147362 2.945861 100 4 3
0.086950 -0.147243 2.944797 100 31 19
0.096134 -0.148336 2.945311 100 67 37
0.106416 -0.148747 2.944716 100 126 70
0.117879 -0.146648 2.948564 100 128 52
0.070489 -0.134414 2.947095 100 143 80
0.080061 -0.140342 2.944392 100 68 35
0.087286 -0.140090 2.945027 100 88 50
0.095983 -0.138126 2.945260 100 131 66
0.105232 -0.137997 2.945243 100 134 60
0.118133 -0.140092 2.943925 100 134 63
0.123648 -0.134949 2.948012 100 136 59
0.069232 -0.129422 2.943050 100 146 81
0.079168 -0.131917 2.944681 100 128 53
0.087781 -0.131576 2.945014 100 134 63
0.098487 -0.131267 2.944833 100 134 64
0.105998 -0.128556 2.945481 100 130 60
0.116811 -0.127331 2.945195 100 123 57
0.126700 -0.128261 2.946458 100 121 60
0.147056 -0.128168 2.945844 100 147 86
0.097194 -0.118637 2.945988 100 143 75
0.108823 -0.119349 2.944893 100 135 62
0.116401 -0.118621 2.944999 100 134 65
0.125660 -0.116946 2.944836 100 105 55
0.136864 -0.118769 2.945894 100 101 55
0.147049 -0.120318 2.944628 100 93 47
0.097620 -0.109104 2.944768 100 139 66
0.107509 -0.108253 2.945263 100 117 61
0.117590 -0.110531 2.944940 100 129 62
0.126214 -0.109265 2.944921 100 80 46
0.134909 -0.109413 2.945654 100 64 36
0.090393 -0.103072 2.944821 100 134 64
0.101699 -0.102508 2.944751 100 95 52
0.109286 -0.101085 2.944950 100 28 13
0.119925 -0.100749 2.945740 100 85 43
0.128476 -0.099924 2.945032 100 15 10
0.137477 -0.097934 2.944531 100 32 19
0.145475 -0.097487 2.944553 100 69 40
0.128810 -0.087350 2.945814 100 52 28
0.078281 -0.154598 2.950404 100 7 4
0.087375 -0.155216 2.954943 100 0 0
0.096364 -0.156523 2.954301 100 9 6
0.106142 -0.158013 2.955010 100 28 18
0.113734 -0.160403 2.954791 100 11 8
0.079050 -0.147627 2.955219 100 7 5
0.086486 -0.147534 2.955198 100 25 16
0.095864 -0.147761 2.955428 100 69 37
0.106028 -0.148816 2.954726 100 123 68
0.114064 -0.145746 2.955372 100 139 72
0.071457 -0.139424 2.956246 100 124 78
0.080256 -0.139142 2.955185 100 76 37
0.087511 -0.140372 2.954911 100 87 49
0.096203 -0.137881 2.955213 100 132 68
0.104900 -0.137828 2.955765 100 123 58
0.117218 -0.140256 2.955399 100 135 62
0.124098 -0.136106 2.954931 100 138 67
0.069243 -0.131007 2.956277 100 139 69
0.075034 -0.131685 2.953694 100 135 63
0.087244 -0.131910 2.954622 100 132 60
0.097609 -0.131096 2.955212 100 133 61
0.105927 -0.129220 2.954931 100 131 61
0.115942 -0.126825 2.955168 100 130 62
0.127526 -0.129545 2.955132 100 127 59
0.147538 -0.128799 2.955172 100 147 82
0.091018 -0.114877 2.951908 100 142 76
0.099065 -0.118568 2.955588 100 139 68
0.108783 -0.119922 2.955052 100 134 59
0.116812 -0.119260 2.955076 100 135 66
0.125795 -0.117724 2.955180 100 126 66
0.136383 -0.119512 2.955600 100 101 55
0.147328 -0.118734 2.954749 100 57 29
0.096824 -0.109300 2.954486 100 146 68
0.108267 -0.108973 2.955174 100 128 63
0.117746 -0.110945 2.954862 100 127 62
0.125688 -0.109154 2.954852 100 69 39
0.133963 -0.107963 2.955187 100 65 36
0.146348 -0.106682 2.955149 100 58 38
0.091082 -0.103710 2.954384 100 132 63
0.100740 -0.101924 2.955690 100 87 43
0.108514 -0.102612 2.954771 100 26 15
0.118363 -0.099857 2.955043 100 86 41
0.128152 -0.099208 2.954640 100 13 8
0.137991 -0.096602 2.954291 100 20 13
0.145635 -0.096874 2.955366 100 67 38
0.128678 -0.088210 2.956425 100 42 25
0.113959 -0.164306 2.966624 100 1 1
0.069980 -0.163275 2.965570 100 1 1
0.075379 -0.159254 2.966886 100 1 1
0.082538 -0.154028 2.960472 100 0 0
0.096674 -0.156653 2.965050 100 7 5
0.106130 -0.156567 2.964209 100 40 23
0.113005 -0.161343 2.963493 100 7 6
0.070496 -0.150603 2.964470 100 0 0
0.079340 -0.148076 2.964943 100 8 6
0.086738 -0.147478 2.965373 100 28 18
0.095733 -0.148050 2.965462 100 78 43
0.106267 -0.148727 2.965362 100 129 71
0.114179 -0.146800 2.965584 100 139 70
0.071793 -0.139933 2.965514 100 121 77
0.080671 -0.138592 2.964399 100 92 42
0.087765 -0.140245 2.964918 100 92 51
0.096438 -0.138263 2.965033 100 132 67
0.105022 -0.138440 2.965823 100 122 58
0.116777 -0.139473 2.964630 100 134 60
0.125086 -0.136170 2.965106 100 136 62
0.066440 -0.131490 2.967053 100 145 79
0.088828 -0.132422 2.964230 100 130 56
0.097425 -0.131665 2.964594 100 134 63
0.106277 -0.129351 2.964944 100 133 63
0.115867 -0.127640 2.965748 100 132 62
0.127775 -0.128542 2.964808 100 134 63
0.135295 -0.126416 2.966378 100 141 73
0.147137 -0.129012 2.965180 100 146 81
0.087991 -0.115525 2.966094 100 119 62
0.098997 -0.120088 2.965674 100 134 58
0.108543 -0.120181 2.964374 100 134 59
0.117432 -0.118980 2.964865 100 135 65
0.125854 -0.118014 2.965667 100 121 64
0.136812 -0.120459 2.964191 100 99 51
0.146807 -0.119042 2.964617 100 53 28
0.091354 -0.104058 2.960200 100 133 63
0.095385 -0.109217 2.965281 100 145 69
0.107691 -0.109296 2.965311 100 125 61
0.119171 -0.109860 2.964902 100 98 49
0.126013 -0.109595 2.964895 100 62 35
0.135611 -0.110427 2.964086 100 44 25
0.149353 -0.106731 2.965387 100 54 36
0.099443 -0.101962 2.964325 100 143 66
0.105498 -0.102477 2.965699 100 77 36
0.116983 -0.100003 2.965296 100 94 44
0.127363 -0.098546 2.965395 100 12 8
0.136763 -0.097188 2.964130 100 21 13
0.144267 -0.097012 2.965336 100 53 30
0.129488 -0.088312 2.965344 100 51 29
0.079070 -0.157272 2.975937 100 4 4
0.088631 -0.156154 2.978110 100 4 3
0.097545 -0.156462 2.973795 100 11 8
0.105772 -0.157309 2.974854 100 31 19
0.112846 -0.160237 2.976633 100 19 12
0.069812 -0.150524 2.972314 100 0 0
0.078669 -0.149198 2.974333 100 7 5
0.087583 -0.147373 2.975131 100 35 22
0.096733 -0.147864 2.975297 100 88 48
0.106816 -0.149111 2.975061 100 118 65
0.115134 -0.147676 2.975540 100 136 67
0.140761 -0.144500 2.977390 100 0 0
0.071810 -0.140276 2.975094 100 125 81
0.080723 -0.138664 2.974236 100 105 48
0.088148 -0.139968 2.974373 100 98 52
0.097004 -0.138435 2.975027 100 133 67
0.105039 -0.137269 2.975338 100 126 62
0.116959 -0.138800 2.974200 100 133 57
0.126002 -0.137139 2.974139 100 135 60
0.066884 -0.133389 2.974768 100 144 82
0.078089 -0.132867 2.973069 100 137 64
0.089457 -0.132273 2.975811 100 103 52
0.098213 -0.132436 2.975427 100 132 62
0.106810 -0.129317 2.975099 100 131 61
0.116389 -0.127347 2.975510 100 132 63
0.126658 -0.128370 2.974382 100 130 60
0.135138 -0.126822 2.975992 100 139 65
0.145951 -0.128405 2.975579 100 146 81
0.077899 -0.116868 2.977785 100 4 3
0.087392 -0.115219 2.973498 100 106 55
0.098672 -0.120303 2.975363 100 137 67
0.107821 -0.120251 2.974869 100 135 60
0.117398 -0.119571 2.974978 100 135 65
0.126085 -0.117717 2.975287 100 110 57
0.137768 -0.119729 2.974990 100 78 42
0.147473 -0.119571 2.974979 100 48 27
0.087159 -0.111055 2.974464 100 135 66
0.094473 -0.108357 2.975584 100 151 73
0.106966 -0.109301 2.974994 100 119 62
0.119730 -0.110095 2.974698 100 81 43
0.125671 -0.109967 2.975424 100 62 36
0.134459 -0.110955 2.975838 100 28 17
0.149815 -0.108500 2.974590 100 36 24
0.098083 -0.102667 2.974460 100 160 76
0.106672 -0.100892 2.975557 100 101 45
0.117772 -0.098257 2.973939 100 66 33
0.127540 -0.099037 2.974612 100 14 9
0.136359 -0.098278 2.974774 100 41 24
0.147113 -0.097549 2.974755 100 59 35
0.129877 -0.087922 2.974773 100 34 20
0.075082 -0.164212 2.987185 100 0 2
0.079879 -0.157351 2.984120 100 7 5
0.087585 -0.155844 2.986519 100 7 4
0.097065 -0.157642 2.984958 100 4 2
0.106623 -0.157607 2.985042 100 37 23
0.079204 -0.151206 2.984787 100 6 5
0.087308 -0.147303 2.984758 100 34 22
0.096414 -0.148044 2.984849 100 93 53
0.105654 -0.149110 2.984809 100 108 57
0.115699 -0.148116 2.985361 100 138 67
0.123046 -0.149809 2.988203 100 130 52
0.139006 -0.144793 2.986182 100 1 0
0.069836 -0.137463 2.985219 100 136 82
0.079180 -0.136956 2.984992 100 96 43
0.087731 -0.140774 2.984679 100 93 48
0.096607 -0.138848 2.984976 100 132 66
0.105017 -0.137623 2.985448 100 123 60
0.114744 -0.138434 2.983661 100 120 50
0.127575 -0.137706 2.985163 100 132 59
0.135994 -0.139265 2.986055 100 144 79
0.060577 -0.125962 2.980637 100 146 80
0.067183 -0.133965 2.986443 100 146 84
0.088709 -0.131565 2.984713 100 75 39
0.098387 -0.130895 2.984678 100 129 62
0.107054 -0.129691 2.984820 100 131 60
0.116358 -0.127695 2.984732 100 125 60
0.126819 -0.128633 2.985080 100 132 59
0.135993 -0.127412 2.984801 100 139 69
0.145516 -0.128077 2.984524 100 122 67
0.079772 -0.116925 2.989639 100 6 4
0.085408 -0.114327 2.984755 100 81 39
0.098771 -0.118196 2.984645 100 136 67
0.107111 -0.120398 2.984396 100 136 64
0.117630 -0.119864 2.984682 100 134 64
0.125996 -0.117411 2.985155 100 107 57
0.136971 -0.119497 2.984528 100 51 29
0.146361 -0.120256 2.985082 100 44 25
0.085743 -0.111081 2.985496 100 137 63
0.094907 -0.107093 2.986680 100 159 75
0.105441 -0.110244 2.984879 100 117 62
0.119307 -0.110105 2.984711 100 62 33
0.125965 -0.110475 2.984982 100 55 32
0.133407 -0.109529 2.987087 100 36 22
0.150695 -0.107033 2.982872 100 83 52
0.101244 -0.100726 2.986516 100 155 70
0.107984 -0.099492 2.984321 100 97 46
0.116430 -0.097744 2.985186 100 27 15
0.127088 -0.100196 2.984606 100 7 4
0.137315 -0.102121 2.984809 100 40 21
0.147021 -0.097688 2.984933 100 66 38
0.078486 -0.158900 2.996371 100 0 0
0.088932 -0.156704 2.995583 100 2 1
0.097469 -0.158006 2.995584 100 5 3
0.107049 -0.157351 2.994511 100 49 31
0.113594 -0.155351 2.991214 100 111 59
0.071415 -0.153533 2.995400 100 2 1
0.080468 -0.150502 2.994737 100 7 5
0.087963 -0.147972 2.995138 100 35 22
0.096713 -0.148681 2.995316 100 88 51
0.106251 -0.147795 2.995005 100 112 57
0.115052 -0.147109 2.995210 100 140 66
0.123135 -0.150766 2.997259 100 129 52
0.136001 -0.145500 2.996119 100 1 0
0.077188 -0.138026 2.994752 100 78 39
0.087876 -0.139984 2.994826 100 102 50
0.096935 -0.139088 2.994699 100 132 67
0.105578 -0.137721 2.995235 100 121 59
0.114875 -0.138301 2.995315 100 113 52
0.127407 -0.138441 2.995416 100 125 59
0.133989 -0.135807 2.993123 100 142 72
0.063630 -0.132375 2.997201 100 145 80
0.087850 -0.128468 2.994153 100 42 23
0.098890 -0.130642 2.995263 100 131 62
0.107552 -0.129869 2.994995 100 131 61
0.115965 -0.127956 2.995347 100 128 64
0.126935 -0.128018 2.995017 100 127 61
0.137279 -0.128253 2.995191 100 135 66
0.145218 -0.125940 2.995132 100 84 46
0.069888 -0.119147 2.998349 100 0 1
0.081559 -0.117015 2.997272 100 8 6
0.087438 -0.116084 2.994939 100 105 49
0.098210 -0.118399 2.994277 100 128 66
0.107412 -0.121363 2.994828 100 136 64
0.117783 -0.120524 2.995172 100 135 64
0.125945 -0.117488 2.995128 100 100 56
0.136795 -0.119183 2.995078 100 37 22
0.146737 -0.120354 2.994503 100 40 22
0.077156 -0.111476 2.996974 100 143 64
0.084807 -0.110916 2.995251 100 141 66
0.098181 -0.109222 2.995206 100 134 71
0.105051 -0.110147 2.994188 100 107 59
0.119021 -0.110172 2.994721 100 57 29
0.125904 -0.110299 2.994809 100 42 25
0.134813 -0.108279 2.993817 100 25 16
0.099767 -0.100776 2.995221 100 108 51
0.106796 -0.098249 2.995083 100 102 48
0.116124 -0.096704 2.994700 100 64 35
0.127052 -0.100652 2.993893 100 1 1
0.138406 -0.099103 2.994044 100 20 11
0.147287 -0.097532 2.995069 100 71 39
0.120602 -0.091202 2.996349 100 29 15
0.078614 -0.164603 3.005915 100 0 1
0.115150 -0.165512 3.008704 100 1 0
0.081039 -0.156009 3.004240 100 0 2
0.087998 -0.155577 3.004409 100 4 2
0.096286 -0.156694 3.005317 100 6 4
0.106934 -0.158004 3.005404 100 58 35
0.113665 -0.159413 3.004712 100 52 26
0.080725 -0.149620 3.005234 100 11 10
0.088183 -0.148054 3.004789 100 41 25
0.095880 -0.148451 3.005204 100 91 53
0.107017 -0.148054 3.004810 100 120 60
0.114452 -0.146459 3.004350 100 118 56
0.127323 -0.151054 3.006759 100 86 33
0.052579 -0.141445 3.008605 100 5 3
0.062695 -0.140200 3.005045 100 58 31
0.074990 -0.139731 3.004169 100 124 68
0.088158 -0.139947 3.004759 100 102 48
0.097580 -0.139386 3.004902 100 134 67
0.106206 -0.138129 3.005104 100 124 60
0.114833 -0.137862 3.005317 100 87 41
0.128801 -0.139338 3.004366 100 123 58
0.137308 -0.137204 3.005871 100 138 67
0.065606 -0.132407 3.006184 100 145 80
0.079856 -0.129062 3.004939 100 1 1
0.090029 -0.131046 3.002409 100 48 24
0.097990 -0.130967 3.004882 100 119 65
0.108075 -0.129746 3.004856 100 128 61
0.116754 -0.127410 3.005655 100 129 62
0.126888 -0.128257 3.005394 100 105 52
0.137402 -0.128992 3.004869 100 134 66
0.146410 -0.126421 3.005275 100 100 57
0.070650 -0.119169 3.003084 100 1 1
0.081872 -0.116960 3.005753 100 15 8
0.088029 -0.118930 3.003495 100 61 32
0.099499 -0.117878 3.004587 100 137 68
0.105834 -0.120655 3.004299 100 136 68
0.118395 -0.120425 3.004872 100 129 63
0.125946 -0.117802 3.005067 100 100 56
0.135940 -0.118888 3.005252 100 20 12
0.147751 -0.119997 3.004422 100 17 10
0.081524 -0.112744 3.005035 100 111 55
0.086374 -0.110953 3.004796 100 137 57
0.098694 -0.108447 3.004525 100 131 69
0.106275 -0.111442 3.004996 100 110 57
0.119571 -0.109699 3.004939 100 43 23
0.126526 -0.110687 3.005085 100 29 17
0.133764 -0.110345 3.005856 100 31 19
0.150388 -0.112526 3.005575 100 3 2
0.100210 -0.098033 3.004154 100 122 57
0.109025 -0.099598 3.003871 100 21 12
0.119666 -0.098372 3.007580 100 53 32
0.126665 -0.100539 3.004602 100 15 9
0.135419 -0.100380 3.005193 100 17 12
0.145785 -0.095591 3.003772 100 48 24
0.105834 -0.093535 3.004762 100 125 66
0.119057 -0.088631 3.005153 100 63 35
0.127750 -0.086788 3.004217 100 11 7
0.077603 -0.165762 3.016118 100 0 2
0.106454 -0.164014 3.014850 100 0 1
0.122068 -0.169332 3.019068 100 1 0
0.080197 -0.160707 3.014207 100 1 1
0.088798 -0.155943 3.015929 100 9 6
0.096177 -0.156885 3.015006 100 9 6
0.106895 -0.157297 3.015274 100 60 36
0.115854 -0.159603 3.017323 100 59 29
0.079129 -0.149204 3.015230 100 10 7
0.088575 -0.148719 3.015000 100 41 25
0.095875 -0.147949 3.015235 100 95 56
0.106812 -0.148296 3.015456 100 125 63
0.115006 -0.148349 3.015197 100 116 53
0.129642 -0.147127 3.013899 100 5 2
0.136163 -0.145112 3.012843 100 120 39
0.143397 -0.145210 3.017182 100 145 81
0.049835 -0.142715 3.016329 100 3 1
0.060844 -0.140990 3.014174 100 36 21
0.067740 -0.141320 3.014715 100 99 53
0.077112 -0.139730 3.014919 100 127 66
0.087989 -0.140091 3.014722 100 112 51
0.097740 -0.139958 3.014875 100 134 66
0.106717 -0.139158 3.015079 100 124 62
0.115858 -0.137646 3.014717 100 84 43
0.127192 -0.140982 3.015204 100 117 57
0.134831 -0.136868 3.015260 100 139 68
0.147718 -0.136147 3.015457 100 122 70
0.064908 -0.133709 3.015008 100 147 86
0.081018 -0.124949 3.012933 100 2 1
0.088423 -0.130943 3.016218 100 21 14
0.097918 -0.130056 3.013865 100 109 58
0.108570 -0.129849 3.014336 100 130 61
0.116781 -0.127759 3.015266 100 131 64
0.126835 -0.127741 3.015440 100 102 52
0.137731 -0.129090 3.015135 100 121 62
0.147009 -0.128287 3.015645 100 96 54
0.081839 -0.120204 3.014176 100 11 6
0.086753 -0.119835 3.016965 100 15 9
0.099457 -0.118910 3.013714 100 127 71
0.106034 -0.118827 3.014760 100 138 70
0.118259 -0.120206 3.014214 100 129 63
0.126101 -0.118758 3.015182 100 99 54
0.135568 -0.118756 3.014983 100 13 8
0.146910 -0.121726 3.014613 100 10 5
0.082052 -0.113699 3.011810 100 101 48
0.082456 -0.113694 3.016238 100 106 48
0.097979 -0.108928 3.014660 100 128 65
0.107214 -0.109534 3.015232 100 111 59
0.118619 -0.110617 3.014578 100 42 20
0.126810 -0.110998 3.015072 100 16 10
0.135753 -0.110118 3.015813 100 47 26
0.147976 -0.113210 3.011482 100 1 1
0.096983 -0.098439 3.013511 100 100 47
0.107438 -0.100898 3.014985 100 0 1
0.119149 -0.099739 3.015847 100 31 20
0.128054 -0.101972 3.016157 100 0 1
0.136007 -0.098618 3.014359 100 31 20
0.148891 -0.095335 3.012412 100 67 32
0.105373 -0.092613 3.015596 100 122 61
0.118047 -0.088586 3.013933 100 36 23
0.126210 -0.086604 3.014623 100 18 10
0.079350 -0.164488 3.020745 100 0 2
0.109565 -0.164853 3.023929 100 0 0
0.116873 -0.166360 3.025135 100 12 7
0.124830 -0.170918 3.027672 100 1 0
0.080421 -0.157443 3.024209 100 1 1
0.088273 -0.156554 3.025274 100 3 2
0.096599 -0.157463 3.025478 100 17 11
0.107575 -0.158147 3.024778 100 55 33
0.117166 -0.157385 3.026030 100 106 51
0.046446 -0.144276 3.026434 100 1 1
0.080353 -0.150357 3.024906 100 23 16
0.088903 -0.148989 3.024873 100 42 25
0.096283 -0.148049 3.025170 100 100 58
0.106566 -0.148160 3.025194 100 123 61
0.114507 -0.149102 3.024396 100 109 54
0.129162 -0.149683 3.025018 100 50 22
0.138027 -0.146247 3.026446 100 97 54
0.143249 -0.145987 3.022463 100 133 60
0.057759 -0.142361 3.026062 100 12 9
0.065753 -0.139413 3.024713 100 101 57
0.077389 -0.142100 3.025687 100 72 43
0.088728 -0.140900 3.024577 100 120 56
0.097940 -0.140293 3.024962 100 133 66
0.107455 -0.139167 3.025082 100 129 63
0.116164 -0.137766 3.025664 100 81 47
0.126660 -0.139200 3.025282 100 130 62
0.137148 -0.136872 3.025354 100 137 68
0.144566 -0.138791 3.024470 100 121 55
0.064587 -0.133794 3.022478 100 148 87
0.088301 -0.128779 3.025330 100 47 31
0.099345 -0.129991 3.025247 100 126 60
0.108255 -0.129993 3.024916 100 131 60
0.117420 -0.128419 3.024808 100 131 65
0.126764 -0.128448 3.025652 100 91 47
0.137927 -0.128985 3.025462 100 99 52
0.145432 -0.127938 3.025980 100 80 46
0.099451 -0.117395 3.025781 100 136 76
0.108160 -0.120242 3.024932 100 138 67
0.118335 -0.120019 3.025084 100 118 60
0.126590 -0.118594 3.024713 100 89 49
0.135259 -0.119375 3.025138 100 25 15
0.147768 -0.122962 3.024875 100 11 7
0.096028 -0.108692 3.024569 100 121 58
0.107454 -0.107238 3.024644 100 106 51
0.117446 -0.111812 3.023964 100 32 14
0.127303 -0.111329 3.024544 100 12 8
0.134129 -0.111146 3.024838 100 34 21
0.090924 -0.095114 3.029768 100 162 77
0.094776 -0.098062 3.024061 100 99 46
0.110675 -0.101581 3.025592 100 80 49
0.117427 -0.097848 3.026223 100 37 24
0.129186 -0.097743 3.026318 100 1 2
0.136226 -0.098990 3.024036 100 0 1
0.100987 -0.092916 3.025393 100 156 77
0.110451 -0.090643 3.024645 100 63 33
0.116831 -0.086452 3.025136 100 33 21
0.125002 -0.086217 3.023915 100 17 9
0.088284 -0.167683 3.035761 100 0 3
0.098720 -0.166002 3.033454 100 0 1
0.106734 -0.166202 3.036230 100 0 0
0.117005 -0.166792 3.033869 100 1 0
0.071632 -0.156372 3.033988 100 0 1
0.079491 -0.157327 3.034502 100 0 0
0.088267 -0.156734 3.034950 100 6 5
0.096483 -0.157314 3.035206 100 20 13
0.107428 -0.158559 3.035523 100 62 38
0.115383 -0.158659 3.034094 100 96 52
0.053356 -0.144453 3.034834 100 5 5
0.078496 -0.148115 3.034310 100 97 67
0.089159 -0.149573 3.034914 100 47 28
0.097052 -0.147995 3.034977 100 105 60
0.106167 -0.147817 3.034858 100 133 68
0.114918 -0.149186 3.035078 100 130 66
0.126765 -0.148570 3.035743 100 68 37
0.136938 -0.144268 3.033413 100 146 81
0.046941 -0.143933 3.032023 100 0 2
0.064655 -0.139644 3.034275 100 87 50
0.078331 -0.138659 3.035557 100 63 33
0.088509 -0.141293 3.034378 100 121 58
0.098130 -0.140276 3.034630 100 135 66
0.107081 -0.139672 3.034970 100 132 64
0.116034 -0.138264 3.035420 100 108 57
0.126709 -0.138626 3.035704 100 106 48
0.137185 -0.138760 3.034958 100 141 72
0.144127 -0.137691 3.034472 100 139 72
0.088794 -0.128428 3.035864 100 92 60
0.097885 -0.128543 3.036092 100 115 63
0.108814 -0.130493 3.034775 100 129 60
0.117197 -0.128865 3.035149 100 133 63
0.126293 -0.128672 3.035254 100 95 50
0.137771 -0.129479 3.034933 100 96 51
0.145539 -0.128219 3.035086 100 60 36
0.088859 -0.123138 3.031995 100 30 21
0.097029 -0.119920 3.035111 100 133 71
0.107848 -0.120418 3.035294 100 121 63
0.119365 -0.119853 3.034141 100 104 55
0.126854 -0.119615 3.035004 100 89 48
0.136021 -0.119524 3.035017 100 23 13
0.147712 -0.122787 3.034750 100 13 9
0.097296 -0.109149 3.035192 100 101 51
0.103341 -0.110163 3.034166 100 120 70
0.118253 -0.111775 3.035640 100 0 0
0.126795 -0.111862 3.034500 100 7 4
0.135094 -0.110861 3.035085 100 14 8
0.145371 -0.105583 3.034238 100 2 2
0.096042 -0.102088 3.034745 100 2 1
0.114628 -0.097967 3.035810 100 54 35
0.127171 -0.094106 3.033308 100 2 3
0.140074 -0.098339 3.036688 100 86 49
0.143769 -0.099231 3.033444 100 128 76
0.098246 -0.092578 3.035425 100 160 81
0.106389 -0.090184 3.033597 100 86 46
0.118308 -0.086485 3.034623 100 28 16
0.107815 -0.083089 3.032633 100 19 12
0.105147 -0.166426 3.046165 100 0 0
0.118549 -0.168457 3.044555 100 0 0
0.075367 -0.155734 3.045052 100 1 1
0.089211 -0.156852 3.044830 100 1 1
0.095498 -0.157031 3.044975 100 23 15
0.106985 -0.158002 3.044394 100 52 31
0.115209 -0.159772 3.045467 100 88 48
0.126214 -0.155724 3.044415 100 129 51
0.050736 -0.145626 3.044401 100 1 2
0.068496 -0.144225 3.046871 100 82 45
0.077391 -0.145837 3.045847 100 138 94
0.089253 -0.149483 3.044854 100 52 30
0.097073 -0.148355 3.045030 100 106 60
0.106587 -0.147527 3.045759 100 133 67
0.115545 -0.149008 3.045323 100 132 67
0.126793 -0.147341 3.045197 100 100 53
0.135238 -0.147021 3.044485 100 96 53
0.061811 -0.143764 3.048147 100 14 9
0.066105 -0.143606 3.041974 100 59 32
0.077755 -0.139271 3.044389 100 87 47
0.088289 -0.141557 3.045286 100 122 53
0.098289 -0.140804 3.044728 100 133 66
0.107330 -0.139706 3.044767 100 133 64
0.115879 -0.138086 3.045160 100 108 57
0.127957 -0.137806 3.045087 100 98 45
0.137348 -0.138045 3.045600 100 137 75
0.144088 -0.135876 3.045498 100 120 59
0.085375 -0.128618 3.045544 100 63 37
0.097416 -0.127963 3.045205 100 109 64
0.108535 -0.129924 3.044313 100 128 61
0.117822 -0.129528 3.044668 100 130 62
0.125917 -0.128891 3.045360 100 102 53
0.137728 -0.128731 3.045112 100 77 42
0.145997 -0.128514 3.044899 100 45 26
0.097595 -0.119980 3.044286 100 134 68
0.106214 -0.119343 3.044355 100 127 70
0.118882 -0.120314 3.045043 100 95 51
0.127321 -0.119788 3.044657 100 76 42
0.135371 -0.119313 3.044538 100 20 12
0.147480 -0.122540 3.044640 100 1 1
0.097218 -0.108434 3.044771 100 104 52
0.105718 -0.111089 3.044641 100 69 41
0.120100 -0.111116 3.043912 100 132 70
0.126916 -0.111242 3.044568 100 12 7
0.136094 -0.110793 3.044291 100 9 6
0.147331 -0.104648 3.041252 100 1 2
0.095269 -0.102059 3.045006 100 0 0
0.106843 -0.101534 3.044811 100 118 69
0.115829 -0.095107 3.045024 100 23 15
0.139876 -0.098171 3.042216 100 87 48
0.096928 -0.091571 3.046524 100 151 78
0.106711 -0.087585 3.045064 100 65 38
0.117334 -0.087625 3.044692 100 38 20
0.090249 -0.166232 3.056809 100 0 0
0.106648 -0.166140 3.057286 100 0 0
0.112461 -0.167099 3.056625 100 1 1
0.122590 -0.170112 3.056001 100 1 1
0.079878 -0.155153 3.056965 100 2 2
0.089025 -0.156438 3.054117 100 2 2
0.096182 -0.157216 3.055175 100 25 15
0.107236 -0.158674 3.054353 100 46 28
0.113661 -0.159813 3.055362 100 90 53
0.126236 -0.157705 3.054742 100 129 53
0.132860 -0.156092 3.059926 100 127 47
0.048513 -0.146634 3.051731 100 0 2
0.060800 -0.144200 3.052730 100 9 6
0.067207 -0.144728 3.055565 100 56 29
0.078212 -0.146677 3.056894 100 142 94
0.089660 -0.148884 3.054716 100 72 39
0.097109 -0.148667 3.055151 100 96 56
0.106203 -0.147397 3.055265 100 136 68
0.115818 -0.148841 3.055408 100 134 66
0.126435 -0.146998 3.055322 100 113 64
0.134540 -0.146395 3.054088 100 128 71
0.143014 -0.146359 3.057626 100 139 67
0.055294 -0.143196 3.051287 100 0 1
0.078046 -0.140639 3.053447 100 107 58
0.087616 -0.141802 3.054271 100 108 44
0.098405 -0.140947 3.055099 100 132 62
0.107556 -0.140164 3.054870 100 135 66
0.115766 -0.138211 3.055305 100 118 59
0.126465 -0.137205 3.054989 100 50 26
0.137350 -0.138491 3.055180 100 132 69
0.144216 -0.136616 3.054016 100 140 72
0.152663 -0.135878 3.055384 100 143 71
0.077152 -0.133602 3.056970 100 9 6
0.087487 -0.128949 3.054986 100 52 31
0.099984 -0.126644 3.054121 100 127 61
0.108418 -0.129534 3.054281 100 113 53
0.118444 -0.130017 3.054930 100 133 64
0.126316 -0.128763 3.055460 100 112 58
0.136867 -0.128605 3.055362 100 55 31
0.146555 -0.129347 3.055070 100 43 26
0.088900 -0.118094 3.055866 100 83 48
0.098383 -0.119456 3.055204 100 127 67
0.107853 -0.119317 3.055409 100 98 51
0.118379 -0.120723 3.054823 100 72 40
0.127527 -0.120813 3.054788 100 74 41
0.135666 -0.120098 3.054742 100 15 10
0.148200 -0.122200 3.055118 100 2 2
0.096163 -0.108946 3.054898 100 107 49
0.108088 -0.112187 3.051465 100 81 48
0.117645 -0.112909 3.054365 100 34 18
0.127180 -0.111796 3.055529 100 50 27
0.137233 -0.108426 3.053321 100 2 2
0.147384 -0.108330 3.054240 100 12 7
0.152192 -0.107810 3.057758 100 14 8
0.097697 -0.102222 3.052357 100 60 31
0.105104 -0.100710 3.055907 100 103 62
0.113634 -0.094520 3.055175 100 17 12
0.143244 -0.101612 3.059403 100 0 2
0.093355 -0.091984 3.051854 100 163 83
0.109704 -0.086538 3.054688 100 33 19
0.116728 -0.087583 3.054153 100 58 31
0.108579 -0.165767 3.065747 100 1 1
0.115674 -0.165947 3.065044 100 26 16
0.123073 -0.170457 3.062483 100 2 0
0.078521 -0.158624 3.064177 100 0 0
0.087011 -0.157624 3.064875 100 6 4
0.096737 -0.157169 3.064862 100 22 14
0.107170 -0.158420 3.064744 100 59 35
0.114471 -0.159311 3.064643 100 71 41
0.124616 -0.158498 3.063640 100 127 52
0.133881 -0.156115 3.064794 100 127 49
0.057564 -0.145674 3.062659 100 4 4
0.068556 -0.145794 3.065045 100 60 33
0.079630 -0.146317 3.067360 100 134 82
0.090146 -0.149242 3.064517 100 81 43
0.096762 -0.149327 3.065025 100 87 49
0.105903 -0.147490 3.065199 100 138 70
0.116012 -0.147978 3.065581 100 126 59
0.127024 -0.146977 3.066252 100 123 69
0.138955 -0.145266 3.064798 100 144 78
0.144809 -0.147030 3.064955 100 128 52
0.079851 -0.142546 3.064494 100 76 45
0.088539 -0.142304 3.065409 100 110 44
0.098665 -0.140923 3.064797 100 133 60
0.107699 -0.140509 3.064662 100 134 65
0.116032 -0.138607 3.065182 100 123 60
0.126437 -0.137394 3.065134 100 77 40
0.137149 -0.138879 3.064743 100 125 66
0.145477 -0.137885 3.065583 100 131 66
0.153303 -0.135048 3.063993 100 138 71
0.075128 -0.131690 3.065583 100 1 1
0.091183 -0.127689 3.062317 100 68 44
0.099313 -0.125552 3.065857 100 138 58
0.109651 -0.129999 3.064589 100 134 59
0.118922 -0.130018 3.065182 100 130 63
0.126614 -0.127760 3.065234 100 115 60
0.136590 -0.128377 3.065721 100 40 23
0.146510 -0.129417 3.064989 100 29 18
0.078205 -0.122417 3.066596 100 0 2
0.085954 -0.121371 3.065663 100 61 35
0.096550 -0.118966 3.066534 100 119 58
0.107815 -0.118654 3.065666 100 81 47
0.117845 -0.119177 3.065136 100 42 26
0.127767 -0.120957 3.064755 100 61 34
0.135196 -0.120549 3.064768 100 12 8
0.146898 -0.120107 3.063691 100 0 1
0.095643 -0.110217 3.064528 100 103 54
0.126466 -0.110549 3.064481 100 65 36
0.138513 -0.111428 3.066653 100 5 5
0.144316 -0.104914 3.068440 100 2 3
0.152956 -0.107213 3.061155 100 6 3
0.092116 -0.101270 3.069441 100 0 0
0.104493 -0.099411 3.064860 100 94 54
0.113440 -0.094019 3.062907 100 6 4
0.099569 -0.092495 3.064946 100 163 80
0.108216 -0.087360 3.065329 100 62 35
0.090043 -0.170355 3.077928 100 0 2
0.094648 -0.164801 3.076111 100 0 0
0.107739 -0.166057 3.075098 100 3 2
0.115105 -0.165527 3.075917 100 27 16
0.124103 -0.171182 3.075471 100 2 2
0.077839 -0.159613 3.076500 100 0 0
0.087597 -0.157030 3.074312 100 17 13
0.096734 -0.157433 3.075020 100 20 13
0.106650 -0.158029 3.074640 100 65 36
0.115099 -0.159632 3.074880 100 84 49
0.125275 -0.159991 3.074394 100 122 52
0.134179 -0.156396 3.076106 100 99 38
0.056863 -0.147091 3.075209 100 2 1
0.067936 -0.146599 3.073457 100 43 24
0.079687 -0.146754 3.074848 100 130 82
0.090250 -0.149631 3.074880 100 74 37
0.097230 -0.149539 3.074887 100 86 49
0.105768 -0.147859 3.075057 100 139 73
