ply
format ascii 1.0
element vertex 1278
property float x
property float y
property float z
property uchar red
property uchar green
property uchar blue
end_header
0.033914 0.120919 2.795135 100 76 28
0.042845 0.120915 2.795019 100 96 41
0.050372 0.120103 2.794811 100 40 18
0.060071 0.118756 2.794383 100 115 36
0.032245 0.132103 2.794353 100 59 25
0.042220 0.127821 2.794692 100 3 3
0.050521 0.129099 2.795512 100 1 2
0.029600 0.138148 2.797656 100 1 2
0.025960 0.074211 2.806016 100 0 1
0.032617 0.074349 2.805133 100 17 10
0.014493 0.085457 2.805686 100 22 7
0.023302 0.084377 2.805104 100 32 15
0.031461 0.084531 2.805138 100 61 26
0.040791 0.084505 2.805597 100 40 14
0.055387 0.084213 2.806429 100 98 26
0.014885 0.091494 2.805269 100 8 5
0.024375 0.091873 2.805302 100 111 52
0.030625 0.091989 2.804789 100 126 48
0.039990 0.091689 2.804894 100 28 14
0.047515 0.092211 2.801387 100 0 0
0.016128 0.103206 2.806564 100 43 19
0.024777 0.101811 2.805318 100 126 52
0.030827 0.102548 2.804827 100 147 56
0.040670 0.103668 2.804271 100 113 38
0.051837 0.104355 2.804266 100 4 4
0.058889 0.103671 2.807582 100 0 1
0.001291 0.115149 2.808679 100 172 78
0.014077 0.112040 2.806534 100 146 61
0.024244 0.110751 2.805328 100 69 28
0.032262 0.111323 2.804929 100 131 47
0.041816 0.113508 2.804945 100 122 47
0.050027 0.113904 2.804970 100 33 13
0.022293 0.117882 2.805006 100 74 22
0.033837 0.121085 2.805532 100 79 29
0.042244 0.121061 2.805033 100 81 36
0.050102 0.120390 2.804299 100 45 19
0.060206 0.118306 2.801927 100 113 30
0.031337 0.130611 2.806116 100 66 25
0.040720 0.128621 2.805903 100 1 1
0.048665 0.128402 2.803571 100 1 2
0.029366 0.138611 2.801355 100 0 1
0.022180 0.075992 2.816827 100 0 1
0.029998 0.075220 2.815735 100 9 6
0.038516 0.076512 2.815333 100 96 43
0.014467 0.083632 2.817348 100 46 15
0.023246 0.084149 2.815504 100 53 24
0.030587 0.084228 2.814923 100 64 27
0.040862 0.084057 2.814501 100 17 7
0.053412 0.083557 2.814469 100 101 25
0.007134 0.089919 2.811615 100 0 3
0.014531 0.090638 2.815406 100 7 4
0.023864 0.091917 2.815104 100 126 58
0.029991 0.091972 2.814699 100 123 44
0.040421 0.091655 2.815724 100 1 0
0.015216 0.100298 2.814800 100 21 10
0.024505 0.101982 2.815084 100 137 55
0.030403 0.102355 2.814975 100 146 54
0.039277 0.103206 2.815669 100 110 36
0.048222 0.104878 2.813269 100 18 11
0.002817 0.114739 2.811300 100 172 79
0.015963 0.110017 2.814971 100 89 31
0.023608 0.110374 2.815434 100 77 31
0.032225 0.111477 2.814894 100 134 48
0.041746 0.113817 2.815148 100 107 43
0.049346 0.113691 2.814794 100 46 15
0.058431 0.115255 2.811000 100 120 31
0.023437 0.119207 2.815506 100 83 28
0.034313 0.120854 2.815421 100 92 37
0.041595 0.120737 2.814992 100 77 34
0.050050 0.120325 2.814552 100 55 21
0.060549 0.118595 2.813860 100 109 28
0.024822 0.128023 2.814506 100 131 37
0.032539 0.129127 2.815258 100 45 19
0.040584 0.128561 2.814168 100 2 2
0.052559 0.128116 2.811971 100 0 1
0.022923 0.074311 2.825591 100 2 2
0.029509 0.074313 2.823912 100 17 9
0.005789 0.081764 2.821086 100 136 42
0.015208 0.083770 2.825309 100 11 5
0.023038 0.083898 2.825398 100 61 27
0.030430 0.083573 2.824678 100 64 27
0.041113 0.081029 2.825364 100 61 20
0.052077 0.082511 2.825717 100 99 24
0.007178 0.092688 2.825720 100 0 0
0.014611 0.090308 2.825014 100 17 9
0.023594 0.091848 2.825000 100 132 54
0.029515 0.091742 2.824737 100 120 41
0.039930 0.091702 2.825395 100 10 5
0.014715 0.104178 2.826285 100 63 29
0.023991 0.102023 2.825177 100 135 53
0.029970 0.102305 2.824729 100 146 54
0.038704 0.102934 2.825139 100 99 33
0.052654 0.104151 2.824089 100 4 3
0.014554 0.110595 2.825140 100 98 37
0.023615 0.110224 2.825075 100 92 36
0.032213 0.112035 2.824901 100 138 49
0.041307 0.113912 2.824962 100 96 40
0.049802 0.113924 2.824444 100 59 20
0.024172 0.119958 2.824317 100 111 38
0.034168 0.121362 2.825210 100 81 34
0.041173 0.120558 2.824650 100 70 31
0.049559 0.120262 2.823828 100 57 23
0.060434 0.117991 2.822779 100 107 26
0.024580 0.128205 2.824461 100 101 27
0.032555 0.129056 2.825599 100 39 15
0.042047 0.128526 2.824625 100 1 1
0.022383 0.074869 2.835580 100 6 4
0.034894 0.074338 2.832717 100 78 40
0.038592 0.075375 2.839494 100 113 46
0.005740 0.086359 2.830331 100 0 2
0.014749 0.083724 2.835860 100 6 4
0.022874 0.083718 2.835137 100 71 31
0.029795 0.083086 2.834651 100 62 27
0.040564 0.081252 2.833727 100 24 8
0.051901 0.080675 2.835242 100 97 24
0.005939 0.087286 2.839992 100 1 1
0.014257 0.090731 2.834962 100 33 15
0.023162 0.091968 2.834966 100 137 52
0.029127 0.091532 2.834520 100 115 39
0.037795 0.087247 2.836029 100 0 0
0.014998 0.102062 2.835771 100 67 29
0.023369 0.101967 2.835103 100 141 55
0.030116 0.102608 2.834713 100 142 51
0.039762 0.103866 2.835169 100 100 34
0.007189 0.108680 2.838976 100 172 79
0.014925 0.110609 2.834858 100 84 30
0.023283 0.110535 2.835150 100 99 37
0.032092 0.112379 2.835059 100 140 51
0.040888 0.113912 2.834866 100 82 35
0.049342 0.114117 2.834223 100 99 32
0.024148 0.120943 2.835939 100 93 31
0.033832 0.121289 2.835120 100 80 35
0.040737 0.120170 2.834724 100 58 27
0.048392 0.119436 2.834809 100 87 35
0.024419 0.128010 2.834512 100 128 40
0.032415 0.128890 2.835219 100 18 8
0.041497 0.128555 2.835043 100 2 3
0.032501 0.138098 2.831519 100 0 1
0.016144 0.075253 2.846539 100 0 1
0.022394 0.074814 2.844998 100 16 9
0.028847 0.074331 2.846503 100 26 13
0.041555 0.076204 2.844908 100 118 40
0.050412 0.076625 2.847487 100 98 26
0.005082 0.085142 2.845384 100 0 2
0.014903 0.082543 2.845234 100 14 7
0.022445 0.083399 2.844918 100 87 37
0.029811 0.082946 2.845212 100 60 25
0.038729 0.080369 2.846814 100 33 9
0.050597 0.078845 2.845767 100 97 25
0.006956 0.088032 2.849591 100 0 2
0.014148 0.091470 2.844973 100 42 20
0.022428 0.091914 2.845019 100 144 56
0.029223 0.091213 2.844620 100 105 34
0.037930 0.094141 2.844667 100 7 5
0.015415 0.101693 2.845245 100 86 37
0.022743 0.101996 2.844951 100 143 56
0.029684 0.102762 2.844772 100 140 49
0.039829 0.104144 2.843757 100 58 24
0.014204 0.110507 2.845101 100 101 36
0.023085 0.110562 2.845263 100 106 40
0.032334 0.112786 2.845093 100 136 51
0.040439 0.114176 2.844735 100 67 28
0.049341 0.115215 2.843865 100 119 43
0.024038 0.121309 2.844998 100 87 27
0.033165 0.121382 2.845133 100 76 33
0.040319 0.120115 2.844517 100 47 21
0.048602 0.121415 2.843817 100 84 36
0.025229 0.128019 2.845811 100 86 33
0.032216 0.129194 2.844843 100 20 10
0.040414 0.128315 2.844088 100 1 2
0.014647 0.076024 2.854259 100 12 5
0.021353 0.073786 2.855433 100 23 12
0.029193 0.073989 2.854055 100 39 17
0.040786 0.074961 2.856131 100 117 40
0.005710 0.084557 2.855134 100 0 1
0.014619 0.082195 2.855242 100 25 12
0.021877 0.083116 2.855021 100 94 39
0.029595 0.082211 2.854866 100 48 21
0.040887 0.080830 2.852477 100 51 14
0.049501 0.079380 2.852782 100 100 27
0.003547 0.088007 2.857513 100 0 0
0.014106 0.092011 2.855683 100 70 32
0.021709 0.091872 2.854945 100 147 56
0.029843 0.091463 2.854465 100 107 38
0.037650 0.096101 2.855433 100 0 0
0.015116 0.102521 2.855515 100 97 39
0.022139 0.102031 2.854957 100 143 55
0.029448 0.102822 2.854645 100 134 49
0.040002 0.102620 2.852728 100 74 30
0.013732 0.110565 2.854884 100 78 28
0.022732 0.110703 2.854965 100 111 41
0.032120 0.113066 2.854990 100 129 50
0.039996 0.113908 2.854688 100 51 20
0.048871 0.112151 2.853964 100 113 49
0.013429 0.117064 2.856575 100 157 64
0.022938 0.121615 2.855169 100 89 30
0.032603 0.121104 2.854771 100 76 34
0.040398 0.120035 2.854924 100 43 19
0.047564 0.123635 2.851289 100 122 40
0.025448 0.127996 2.854342 100 42 18
0.032454 0.128539 2.854628 100 7 4
0.040445 0.129300 2.853800 100 0 1
0.019323 0.065265 2.861457 100 0 2
0.014671 0.075113 2.865656 100 5 3
0.022350 0.074269 2.865049 100 30 14
0.030223 0.073130 2.865807 100 28 14
0.042008 0.074762 2.864302 100 115 38
0.005190 0.083686 2.864986 100 0 0
0.014431 0.081543 2.865263 100 44 20
0.021369 0.082734 2.864924 100 100 41
0.030409 0.081262 2.865454 100 38 16
0.042170 0.079335 2.861148 100 67 20
0.005066 0.087628 2.864103 100 0 0
0.014397 0.092026 2.865357 100 104 45
0.020908 0.091666 2.864803 100 147 56
0.030682 0.091732 2.864829 100 75 29
0.006562 0.106076 2.863924 100 1 2
0.015293 0.101832 2.865869 100 126 52
0.021748 0.102093 2.864830 100 142 53
0.029959 0.103120 2.864782 100 133 50
0.041495 0.102807 2.860626 100 14 7
0.047808 0.106345 2.862128 100 162 73
-0.004267 0.112181 2.867980 100 173 80
0.003738 0.111607 2.860061 100 165 72
0.014214 0.110645 2.865097 100 81 29
0.022864 0.111088 2.865063 100 122 44
0.032040 0.113241 2.864777 100 120 48
0.040284 0.113769 2.864800 100 46 16
0.049244 0.111091 2.861691 100 114 50
0.016252 0.120656 2.865433 100 91 20
0.023201 0.122028 2.864994 100 87 31
0.031721 0.120959 2.865064 100 70 32
0.039347 0.120088 2.864128 100 44 20
0.047895 0.124147 2.862909 100 122 39
0.024035 0.127868 2.864267 100 31 13
0.031656 0.128907 2.864683 100 5 4
0.013864 0.065409 2.875888 100 1 0
0.020692 0.065771 2.875242 100 5 3
0.014034 0.074820 2.875444 100 9 5
0.022244 0.074020 2.875021 100 25 11
0.029533 0.072994 2.875612 100 17 10
0.037962 0.071747 2.871368 100 111 45
0.004898 0.083009 2.875005 100 0 0
0.014462 0.081503 2.875296 100 68 30
0.020865 0.082613 2.874834 100 109 43
0.030085 0.082259 2.874357 100 54 20
0.006373 0.090672 2.876483 100 69 22
0.014667 0.092221 2.875268 100 124 50
0.020511 0.092092 2.874809 100 146 54
0.029250 0.091650 2.874009 100 81 30
0.039216 0.095139 2.875612 100 160 55
0.015012 0.101855 2.875099 100 128 52
0.021250 0.102164 2.874791 100 144 53
0.030042 0.103319 2.874956 100 133 48
0.039333 0.102340 2.874938 100 97 33
0.000558 0.111178 2.875591 100 134 59
0.013790 0.110767 2.874971 100 77 28
0.022538 0.111374 2.875049 100 123 45
0.031827 0.113406 2.874912 100 106 43
0.039957 0.113792 2.874321 100 63 22
0.015948 0.122280 2.875103 100 121 34
0.023564 0.122037 2.875293 100 74 29
0.031078 0.120801 2.874854 100 64 29
0.039015 0.119777 2.874238 100 79 32
0.014064 0.127223 2.878464 100 129 35
0.025776 0.128730 2.875414 100 3 2
0.030491 0.129044 2.875250 100 1 1
0.014742 0.066303 2.885078 100 2 1
0.025636 0.065293 2.881623 100 1 1
0.005371 0.076951 2.884671 100 0 0
0.013637 0.074726 2.885829 100 17 8
0.021772 0.074015 2.885018 100 26 12
0.031749 0.072918 2.885138 100 45 21
0.004915 0.081553 2.885697 100 3 2
0.014471 0.081739 2.885128 100 93 39
0.020685 0.082119 2.884861 100 110 44
0.030402 0.081770 2.884061 100 41 18
0.006261 0.092276 2.887079 100 0 0
0.014447 0.092276 2.885257 100 131 51
0.020494 0.092003 2.884587 100 143 52
0.031043 0.092058 2.885564 100 89 32
0.037832 0.095445 2.882522 100 158 54
0.006075 0.104819 2.884335 100 122 39
0.014567 0.101529 2.885190 100 131 52
0.020689 0.102194 2.884851 100 146 53
0.030482 0.102856 2.884834 100 112 42
0.039534 0.104329 2.884017 100 3 3
-0.008701 0.112013 2.884794 100 171 78
0.005524 0.110069 2.886513 100 99 33
0.013957 0.110859 2.885009 100 80 29
0.022547 0.111421 2.884946 100 131 48
0.031342 0.113476 2.884952 100 94 39
0.040290 0.112783 2.884237 100 77 25
0.014401 0.122596 2.885374 100 111 30
0.024132 0.121484 2.885311 100 79 33
0.030696 0.120856 2.884837 100 56 26
0.038710 0.119216 2.882504 100 75 31
0.013144 0.127914 2.886390 100 110 34
0.024462 0.128798 2.884344 100 1 1
0.029684 0.128766 2.884253 100 1 1
0.014289 0.065440 2.895873 100 1 2
0.022789 0.065599 2.893082 100 0 1
0.030809 0.066448 2.892988 100 77 40
0.005785 0.074740 2.897063 100 6 5
0.013135 0.074773 2.895155 100 23 12
0.021604 0.073827 2.895130 100 34 15
0.030415 0.075837 2.896175 100 0 1
0.004731 0.082523 2.895000 100 19 11
0.014265 0.081693 2.895108 100 114 47
0.020391 0.081778 2.895020 100 109 43
0.029351 0.082275 2.894448 100 32 15
0.005898 0.091334 2.895538 100 2 2
0.014242 0.092392 2.895178 100 137 51
0.020274 0.091861 2.894710 100 141 49
0.030008 0.093241 2.894138 100 108 37
0.004316 0.104151 2.894869 100 91 31
0.014002 0.101557 2.895256 100 134 52
0.020404 0.102379 2.894674 100 144 51
0.031466 0.103733 2.894521 100 92 32
0.039639 0.101914 2.894218 100 1 2
-0.015747 0.112623 2.898055 100 169 76
-0.004109 0.110773 2.892541 100 167 74
0.003799 0.111339 2.894845 100 129 45
0.013971 0.110773 2.895177 100 84 29
0.022326 0.111770 2.895001 100 134 50
0.030684 0.113129 2.894855 100 81 33
0.039361 0.113181 2.893945 100 117 40
0.006986 0.122649 2.898976 100 157 63
0.014123 0.123176 2.895629 100 105 32
0.024000 0.121139 2.895318 100 70 31
0.030499 0.120428 2.894558 100 53 24
0.038397 0.123391 2.891754 100 1 1
0.013004 0.127499 2.896190 100 127 43
0.024140 0.128070 2.895557 100 4 3
0.028975 0.129192 2.893525 100 0 1
0.011883 0.065423 2.905234 100 1 2
0.019874 0.066034 2.906331 100 1 1
0.005540 0.075701 2.907013 100 1 2
0.012629 0.074601 2.905164 100 41 19
0.020619 0.074165 2.905089 100 44 20
0.029736 0.075731 2.905790 100 2 3
0.003554 0.081123 2.905262 100 25 13
0.013649 0.081750 2.905037 100 124 50
0.019855 0.081909 2.904790 100 110 42
0.030279 0.081617 2.904180 100 30 15
0.005846 0.090726 2.904791 100 13 7
0.013546 0.092307 2.905169 100 140 52
0.019676 0.092045 2.904503 100 142 49
0.028895 0.092443 2.905660 100 116 34
0.004343 0.103417 2.905841 100 103 38
0.013178 0.101629 2.905069 100 135 52
0.020079 0.102330 2.904770 100 143 51
0.030428 0.105333 2.905426 100 72 28
0.037764 0.102379 2.906174 100 1 0
-0.012900 0.111739 2.901308 100 169 76
-0.009462 0.110732 2.906042 100 168 76
0.004008 0.112176 2.905468 100 96 32
0.013649 0.110621 2.905152 100 97 34
0.022468 0.112007 2.905129 100 130 50
0.030171 0.113225 2.904677 100 77 30
0.038820 0.112703 2.904420 100 145 52
0.013165 0.122020 2.904927 100 103 32
0.023309 0.120973 2.905050 100 64 29
0.030414 0.120223 2.904676 100 44 20
0.009756 0.127304 2.909710 100 132 40
0.023849 0.129442 2.904155 100 3 3
0.026642 0.137187 2.906049 100 0 2
0.011940 0.064819 2.913718 100 1 1
0.019245 0.066041 2.914564 100 0 1
-0.003789 0.076878 2.917899 100 1 1
0.005200 0.074028 2.915824 100 9 4
0.012324 0.074461 2.915339 100 57 26
0.019927 0.073743 2.914937 100 36 18
0.029693 0.074795 2.915011 100 1 2
-0.004155 0.077952 2.916876 100 0 0
0.004039 0.081877 2.915343 100 61 26
0.013165 0.081565 2.915187 100 129 50
0.019514 0.082022 2.914622 100 108 40
0.029122 0.082274 2.913714 100 1 2
0.005294 0.091755 2.915809 100 89 36
0.012674 0.092565 2.915201 100 143 53
0.020606 0.092267 2.915200 100 142 47
0.029055 0.091859 2.913679 100 110 32
0.005092 0.102186 2.916059 100 113 45
0.012450 0.101787 2.914949 100 136 51
0.020025 0.102648 2.914471 100 136 47
0.030314 0.103968 2.915863 100 63 24
-0.015704 0.110963 2.918374 100 169 76
-0.005443 0.109606 2.912264 100 164 71
0.003825 0.111317 2.915401 100 86 28
0.013509 0.110721 2.915306 100 109 39
0.022420 0.112484 2.915072 100 122 48
0.029952 0.113176 2.914246 100 65 26
0.041127 0.115386 2.916971 100 112 29
0.006007 0.124310 2.915400 100 120 27
0.012814 0.121719 2.915826 100 75 25
0.022509 0.120902 2.914812 100 59 27
0.029556 0.119867 2.914656 100 44 20
0.016779 0.129513 2.911611 100 2 2
0.023439 0.128682 2.915219 100 3 2
0.028530 0.129946 2.914862 100 0 1
0.023018 0.139222 2.917454 100 0 1
0.005624 0.064579 2.926710 100 0 1
0.011165 0.064774 2.925497 100 12 7
0.018881 0.064830 2.924179 100 0 0
-0.003542 0.076748 2.924982 100 0 1
0.005184 0.073703 2.926215 100 21 9
0.012172 0.074116 2.925246 100 69 31
0.019859 0.073116 2.924369 100 34 16
0.028587 0.074630 2.924228 100 0 2
-0.004410 0.079992 2.925332 100 0 1
0.004277 0.081325 2.925026 100 85 34
0.012640 0.081695 2.925084 100 133 51
0.019323 0.081330 2.924750 100 87 33
0.028274 0.081036 2.924450 100 3 1
-0.003719 0.087243 2.921514 100 159 58
0.004969 0.092379 2.925387 100 118 46
0.011642 0.092222 2.924966 100 143 52
0.020320 0.092632 2.924143 100 141 44
0.031504 0.095328 2.925082 100 154 52
0.005419 0.101671 2.925668 100 105 43
0.011961 0.101670 2.924987 100 139 51
0.020181 0.103313 2.924797 100 129 46
0.030070 0.103727 2.924738 100 83 31
-0.006892 0.111703 2.925411 100 153 58
0.003975 0.111414 2.925361 100 99 33
0.013318 0.110624 2.925404 100 118 42
0.022079 0.112607 2.924843 100 112 46
0.030627 0.113106 2.924519 100 72 26
0.038300 0.115344 2.920324 100 112 29
0.004750 0.123260 2.924643 100 139 48
0.013680 0.121316 2.925522 100 54 21
0.021790 0.120357 2.924875 100 53 25
0.028745 0.120783 2.924508 100 35 16
0.015543 0.127662 2.928073 100 0 1
0.021781 0.129658 2.924773 100 4 2
0.023703 0.137995 2.920164 100 0 3
0.005213 0.065601 2.936064 100 0 1
0.011613 0.064208 2.934923 100 13 7
0.020786 0.064781 2.934679 100 0 2
-0.003760 0.076507 2.936750 100 1 2
0.004815 0.073602 2.935355 100 32 14
0.012036 0.073781 2.935144 100 77 34
0.019528 0.072913 2.934886 100 28 15
0.028094 0.071058 2.933321 100 0 2
-0.005303 0.081248 2.934954 100 2 2
0.004250 0.081325 2.935370 100 103 42
0.011619 0.081620 2.934955 100 135 51
0.019362 0.080707 2.934440 100 78 31
0.004780 0.092692 2.935327 100 123 47
0.011112 0.092317 2.934826 100 142 51
0.019515 0.093706 2.934865 100 147 49
0.028774 0.095458 2.931081 100 155 53
-0.003572 0.103044 2.936818 100 107 34
0.005050 0.101411 2.935291 100 104 41
0.011670 0.101833 2.934965 100 143 52
0.020649 0.104283 2.934461 100 116 42
0.030384 0.102487 2.933973 100 43 16
-0.006441 0.108602 2.935816 100 160 68
0.003894 0.110228 2.935347 100 98 34
0.013191 0.111046 2.935009 100 120 44
0.021233 0.112850 2.934963 100 104 43
0.030346 0.112683 2.934908 100 92 32
0.038537 0.114275 2.938511 100 113 30
-0.007764 0.125078 2.937944 100 153 61
0.004775 0.122712 2.935643 100 137 45
0.014020 0.121097 2.935230 100 57 24
0.021220 0.120370 2.934813 100 50 23
0.028442 0.120505 2.934918 100 72 30
0.021122 0.130194 2.935387 100 4 2
0.004777 0.063662 2.944975 100 1 1
0.010049 0.065418 2.944622 100 40 19
-0.004702 0.076447 2.945602 100 5 3
0.004466 0.073269 2.945447 100 50 21
0.011485 0.073432 2.944866 100 83 36
0.019813 0.072413 2.944808 100 26 13
-0.005767 0.081909 2.944834 100 8 5
0.004313 0.081893 2.945441 100 122 49
0.010890 0.081429 2.944990 100 135 51
0.018732 0.080362 2.943711 100 66 26
-0.003221 0.089629 2.944406 100 1 1
0.004501 0.092691 2.945036 100 133 51
0.010688 0.092234 2.944905 100 143 50
0.019356 0.092333 2.944534 100 132 45
0.032588 0.096988 2.941865 100 0 0
-0.004288 0.101826 2.945740 100 147 51
0.004666 0.101558 2.945287 100 116 44
0.011141 0.102102 2.944762 100 143 51
0.020527 0.104190 2.944464 100 105 40
0.029020 0.105219 2.944937 100 74 24
-0.014310 0.108980 2.941392 100 168 78
-0.005120 0.109283 2.945790 100 122 46
0.003855 0.110203 2.945163 100 92 31
0.013056 0.111283 2.945103 100 126 47
0.020583 0.112873 2.944978 100 99 41
0.031115 0.112573 2.944236 100 104 36
0.037333 0.114655 2.944122 100 125 53
-0.004966 0.124216 2.941231 100 153 60
0.004093 0.121693 2.945663 100 113 33
0.014072 0.120771 2.945421 100 54 25
0.020709 0.119887 2.944840 100 44 20
0.028462 0.121521 2.943622 100 35 15
0.015267 0.127638 2.945534 100 0 0
0.019620 0.130630 2.944753 100 1 1
0.004714 0.064269 2.956003 100 22 11
0.011304 0.065451 2.954064 100 56 27
-0.005732 0.074726 2.955296 100 5 3
0.003829 0.073355 2.955209 100 67 28
0.011092 0.072999 2.954920 100 77 32
0.020795 0.071946 2.954916 100 2 2
0.027611 0.067319 2.952204 100 0 1
-0.005758 0.082067 2.955789 100 28 12
0.004360 0.081712 2.955482 100 134 51
0.010502 0.081299 2.954595 100 130 49
0.018600 0.080321 2.955044 100 93 35
-0.004244 0.090424 2.953920 100 14 4
0.004079 0.092535 2.955293 100 140 53
0.010269 0.092229 2.954641 100 144 50
0.019554 0.091489 2.955691 100 120 43
-0.005530 0.102230 2.955370 100 140 45
0.004188 0.101433 2.955377 100 125 47
0.010765 0.102482 2.954816 100 142 50
0.020785 0.104724 2.954458 100 94 38
0.028183 0.103500 2.954432 100 66 22
-0.005110 0.109101 2.953755 100 123 44
0.004348 0.110253 2.955332 100 111 40
0.013165 0.111605 2.955143 100 128 49
0.020260 0.112814 2.954548 100 89 36
0.032166 0.113243 2.954617 100 122 54
0.045364 0.112228 2.954592 100 140 73
-0.004067 0.121898 2.959515 100 156 62
0.003688 0.121450 2.954806 100 112 34
0.013747 0.120633 2.955170 100 56 26
0.020023 0.119922 2.954713 100 34 16
0.013053 0.128932 2.957532 100 0 0
0.018026 0.128786 2.954383 100 1 2
0.003421 0.064020 2.965372 100 28 14
0.010340 0.064934 2.963590 100 92 41
0.020065 0.067011 2.968155 100 0 2
-0.013474 0.076100 2.969991 100 0 1
-0.005627 0.074217 2.965463 100 9 5
0.003184 0.073212 2.965108 100 78 33
0.010498 0.072369 2.964817 100 67 28
0.020110 0.071852 2.964488 100 5 3
-0.014270 0.083050 2.963248 100 0 1
-0.005427 0.082496 2.965281 100 76 30
0.003500 0.081294 2.965076 100 138 51
0.010200 0.080949 2.964774 100 123 47
0.018882 0.081452 2.963567 100 133 47
-0.004326 0.090925 2.965308 100 60 20
0.003419 0.092325 2.965132 100 141 52
0.010088 0.092460 2.964418 100 144 50
0.019224 0.093792 2.964529 100 63 27
-0.006348 0.102496 2.965101 100 122 37
0.003564 0.101542 2.965162 100 130 48
0.010695 0.102604 2.964638 100 141 48
0.021757 0.104251 2.964454 100 68 28
0.028380 0.101479 2.963347 100 0 1
-0.004289 0.109418 2.965793 100 73 26
0.003801 0.109980 2.965039 100 114 40
0.012929 0.111997 2.964988 100 123 49
0.019629 0.113111 2.964695 100 81 32
0.033021 0.114041 2.964498 100 131 62
0.044750 0.112741 2.964590 100 140 73
0.003204 0.121767 2.964859 100 91 30
0.013302 0.120335 2.965131 100 51 25
0.020111 0.119764 2.964596 100 26 12
0.014437 0.128687 2.965420 100 0 1
0.017595 0.134538 2.962249 100 0 2
0.001304 0.056031 2.973437 100 0 3
-0.004142 0.064054 2.976087 100 24 7
0.002109 0.064348 2.974925 100 35 18
0.009776 0.064983 2.975487 100 64 27
-0.013735 0.074310 2.975481 100 0 1
-0.005916 0.072429 2.975611 100 16 8
0.002417 0.073087 2.975133 100 92 38
0.009733 0.072093 2.974654 100 56 25
0.018980 0.070201 2.975117 100 2 2
-0.015079 0.080897 2.977074 100 1 1
-0.005790 0.081740 2.974682 100 95 35
0.002840 0.081204 2.974990 100 143 53
0.009804 0.080500 2.974569 100 108 40
-0.004562 0.091940 2.975444 100 111 41
0.002306 0.092251 2.975023 100 144 52
0.009911 0.092380 2.974226 100 141 49
0.019802 0.094866 2.976310 100 4 2
-0.006538 0.101992 2.975656 100 111 35
0.002836 0.101430 2.974997 100 131 47
0.010592 0.103104 2.974743 100 139 49
0.022193 0.104236 2.975065 100 59 21
0.027775 0.101915 2.972814 100 0 2
-0.004848 0.109706 2.975935 100 84 30
0.003627 0.110363 2.975178 100 120 43
0.012295 0.112229 2.975003 100 118 47
0.019790 0.113153 2.974431 100 69 26
0.032586 0.113703 2.973937 100 138 64
0.045384 0.112223 2.976368 100 141 74
-0.005533 0.123416 2.973980 100 139 45
0.002808 0.121605 2.975377 100 72 25
0.012318 0.120301 2.975072 100 49 24
0.019568 0.119535 2.974833 100 15 9
0.029546 0.117765 2.976344 100 122 72
-0.008596 0.128577 2.974759 100 128 31
0.013444 0.129367 2.975692 100 0 1
0.010785 0.056121 2.984974 100 0 2
-0.004034 0.064892 2.984392 100 0 0
0.002197 0.064451 2.985205 100 48 22
0.009771 0.064355 2.984958 100 31 13
0.017719 0.065391 2.988460 100 0 0
-0.015471 0.074240 2.985764 100 0 2
-0.005198 0.072069 2.985510 100 34 16
0.001956 0.072937 2.985055 100 98 40
0.009683 0.072365 2.984526 100 43 20
0.021596 0.069827 2.985960 100 2 1
-0.015446 0.080719 2.986128 100 12 5
-0.005981 0.081606 2.985023 100 110 40
0.002361 0.081138 2.984871 100 141 52
0.009443 0.080396 2.984564 100 95 35
-0.004656 0.092266 2.985929 100 126 47
0.001147 0.092431 2.984921 100 143 52
0.009533 0.092010 2.984846 100 134 45
0.017553 0.093723 2.984056 100 0 2
-0.014302 0.102453 2.986399 100 146 47
-0.005839 0.101622 2.985269 100 107 37
0.002209 0.101567 2.984994 100 135 47
0.010097 0.103129 2.984829 100 136 49
0.020558 0.105145 2.984312 100 75 25
-0.017372 0.107356 2.987279 100 162 68
-0.005436 0.108627 2.985394 100 77 25
0.003927 0.110525 2.985215 100 118 43
0.011752 0.112550 2.984993 100 111 46
0.019530 0.112472 2.984546 100 74 25
0.033715 0.116216 2.985319 100 137 76
-0.003997 0.121063 2.983948 100 125 34
0.004598 0.121047 2.985596 100 46 19
0.011705 0.119999 2.984797 100 50 23
0.019300 0.119885 2.984649 100 14 9
0.011751 0.128501 2.984481 100 0 0
-0.007042 0.056423 2.990419 100 1 0
0.004280 0.055572 2.996947 100 0 2
-0.005678 0.064251 2.995466 100 4 3
0.001616 0.064650 2.995172 100 48 22
0.008858 0.063220 2.994650 100 16 7
0.018717 0.065443 2.993714 100 0 0
-0.014564 0.073465 2.996713 100 6 4
-0.005509 0.072368 2.995580 100 62 27
0.001328 0.072676 2.994875 100 102 42
0.010066 0.071705 2.994812 100 41 17
0.017635 0.070749 2.991546 100 0 2
-0.015706 0.080547 2.996214 100 52 24
-0.005595 0.082126 2.995394 100 128 47
0.001660 0.080958 2.994836 100 139 51
0.009224 0.080930 2.994868 100 75 28
-0.013058 0.096569 2.993791 100 152 55
-0.004928 0.092185 2.995591 100 135 50
0.000742 0.092374 2.994684 100 142 51
0.009327 0.092838 2.993443 100 131 45
-0.013740 0.101078 2.996459 100 138 42
-0.005788 0.100691 2.995206 100 108 38
0.001916 0.101794 2.994933 100 138 47
0.010037 0.103506 2.994396 100 129 47
0.020292 0.103477 2.994404 100 96 33
-0.004992 0.110045 2.995297 100 82 30
0.003827 0.110979 2.995205 100 124 46
0.011195 0.112601 2.994798 100 100 41
0.019144 0.110482 2.993346 100 77 24
0.030285 0.115919 2.997781 100 133 78
0.038128 0.114463 2.994637 100 142 77
-0.004956 0.123339 2.995663 100 88 28
0.004423 0.120563 2.995579 100 40 19
0.010636 0.120222 2.994860 100 43 20
0.019657 0.120348 2.993527 100 13 9
0.005296 0.130185 2.995773 100 0 0
0.010941 0.129082 2.994890 100 2 2
-0.006311 0.055519 3.006189 100 1 2
0.001492 0.054502 3.008587 100 1 3
0.008311 0.055183 3.000580 100 1 1
-0.006084 0.064084 3.005699 100 16 9
0.000862 0.064233 3.005128 100 53 25
0.010850 0.066396 3.004068 100 1 1
0.018109 0.065598 3.001493 100 1 1
-0.015284 0.072148 3.004755 100 10 5
-0.005676 0.072414 3.005388 100 86 37
0.001216 0.072120 3.004771 100 94 37
0.011042 0.070516 3.004105 100 28 13
-0.016279 0.080373 3.005627 100 52 26
-0.005775 0.081491 3.005325 100 138 50
0.000909 0.081175 3.004872 100 138 50
0.008274 0.079668 3.002978 100 58 21
-0.014456 0.090321 3.007051 100 55 23
-0.005571 0.092230 3.005239 100 134 49
0.000154 0.091982 3.004700 100 142 49
0.008223 0.096428 3.004381 100 130 36
-0.014552 0.101121 3.005255 100 143 49
-0.005554 0.101085 3.005545 100 121 42
0.001439 0.101904 3.004892 100 138 46
0.010195 0.104484 3.004554 100 104 39
0.018748 0.102520 3.006693 100 1 1
-0.014585 0.108552 3.008540 100 118 29
-0.004456 0.110534 3.005478 100 107 40
0.003738 0.111523 3.005341 100 127 48
0.010322 0.112696 3.004660 100 92 37
0.017951 0.111496 3.004596 100 120 37
0.030084 0.114838 3.007023 100 132 78
0.038859 0.113864 3.002172 100 143 77
-0.005656 0.123265 3.004656 100 88 29
0.004563 0.120318 3.005476 100 51 24
0.009990 0.119685 3.004614 100 39 19
0.020049 0.120146 3.004074 100 33 21
0.004251 0.129318 3.004757 100 0 1
0.010627 0.129409 3.002803 100 1 1
-0.008362 0.055585 3.014317 100 2 1
0.002656 0.055568 3.014724 100 1 1
-0.012977 0.064545 3.014698 100 0 1
-0.007126 0.063980 3.015409 100 34 17
0.001139 0.064430 3.014715 100 46 20
0.008336 0.066380 3.018319 100 0 2
-0.024457 0.072124 3.015605 100 49 28
-0.015864 0.072454 3.015738 100 34 15
-0.006563 0.072201 3.015146 100 100 42
0.000676 0.072342 3.014702 100 91 36
0.010093 0.070299 3.014723 100 10 5
-0.025037 0.079262 3.017825 100 0 0
-0.016251 0.081233 3.015881 100 58 25
-0.005904 0.081557 3.015302 100 140 50
-0.000002 0.080979 3.014367 100 134 48
0.008295 0.080015 3.014113 100 2 1
-0.014669 0.092053 3.016027 100 81 29
-0.006269 0.092156 3.015177 100 136 50
-0.000024 0.092333 3.014894 100 141 47
0.012525 0.093130 3.015105 100 143 48
0.018110 0.089194 3.018072 100 150 53
-0.025686 0.106840 3.019710 100 163 67
-0.014855 0.102019 3.014886 100 133 41
-0.005810 0.101269 3.015354 100 124 41
0.001055 0.102167 3.014776 100 138 46
0.010270 0.104457 3.014805 100 92 34
-0.004716 0.110064 3.015396 100 113 41
0.003431 0.112046 3.015167 100 122 47
0.009838 0.112698 3.014687 100 79 32
0.021201 0.114357 3.014751 100 108 47
0.032739 0.113911 3.015681 100 137 80
-0.007002 0.122697 3.015098 100 109 38
0.003759 0.120084 3.015370 100 49 23
0.010128 0.120315 3.014440 100 27 12
0.017629 0.123258 3.012576 100 1 1
0.002679 0.128622 3.015759 100 0 2
0.008932 0.130353 3.013424 100 4 4
-0.008964 0.054959 3.025512 100 0 1
0.001003 0.056672 3.025539 100 0 0
-0.014382 0.064824 3.026930 100 2 2
-0.007778 0.063944 3.025197 100 42 20
0.000228 0.064445 3.024663 100 35 15
0.011018 0.064167 3.023307 100 0 2
-0.023473 0.071085 3.024651 100 32 18
-0.015797 0.071408 3.025481 100 50 22
-0.007140 0.072142 3.025112 100 111 45
0.000338 0.072348 3.024894 100 76 32
0.010053 0.071245 3.024580 100 1 1
-0.024225 0.078178 3.025828 100 2 1
-0.015652 0.081524 3.025388 100 92 36
-0.006651 0.081672 3.025015 100 143 51
-0.000410 0.081394 3.024343 100 128 46
-0.013904 0.092574 3.025658 100 99 35
-0.007326 0.092134 3.025177 100 138 50
-0.000631 0.092337 3.024575 100 138 45
0.015225 0.089810 3.025845 100 149 52
-0.023833 0.106429 3.023984 100 156 62
-0.016501 0.101157 3.025632 100 124 36
-0.006434 0.101190 3.025021 100 128 43
0.000858 0.102739 3.024951 100 136 46
0.010071 0.104363 3.023975 100 64 24
0.018272 0.099443 3.026057 100 0 2
-0.005624 0.110500 3.025594 100 117 43
0.002972 0.112143 3.025030 100 115 46
0.009665 0.113024 3.024680 100 71 27
0.021663 0.113633 3.024715 100 115 50
0.034984 0.113322 3.025181 100 137 78
-0.006383 0.121253 3.026102 100 70 27
0.002752 0.119933 3.025156 100 48 23
0.009512 0.119949 3.024388 100 15 7
-0.005051 0.128579 3.026248 100 0 0
0.005584 0.127818 3.026271 100 0 1
0.007437 0.128332 3.020356 100 0 1
-0.013425 0.054040 3.035058 100 0 0
-0.009443 0.055293 3.035768 100 6 3
0.001339 0.054768 3.030593 100 0 1
-0.015080 0.064335 3.035704 100 7 5
-0.007933 0.063995 3.035090 100 54 24
0.000049 0.064878 3.034009 100 22 10
0.007566 0.065714 3.035571 100 0 3
-0.024533 0.072245 3.036525 100 3 3
-0.015606 0.071022 3.035378 100 54 23
-0.008000 0.072059 3.035041 100 114 46
-0.000080 0.072215 3.034430 100 71 29
0.010975 0.074772 3.037183 100 0 1
-0.025876 0.078119 3.033731 100 6 4
-0.016038 0.081917 3.035405 100 111 39
-0.007784 0.081635 3.035078 100 143 50
-0.001114 0.081230 3.034400 100 122 44
-0.014331 0.092748 3.035141 100 108 40
-0.008360 0.092188 3.035041 100 140 49
-0.000513 0.092498 3.034224 100 135 44
0.013012 0.089449 3.035164 100 150 52
-0.027090 0.103588 3.036608 100 144 52
-0.016586 0.102470 3.034607 100 123 39
-0.007171 0.101205 3.035068 100 131 43
0.000456 0.103694 3.034939 100 133 45
0.010105 0.103045 3.035398 100 49 18
0.024527 0.105202 3.035269 100 142 42
-0.016198 0.107315 3.035648 100 120 31
-0.006001 0.110731 3.035547 100 121 44
0.002188 0.112435 3.035075 100 107 44
0.010079 0.112935 3.034651 100 68 26
0.023318 0.111483 3.035847 100 127 50
0.035501 0.112907 3.036677 100 137 74
-0.005217 0.121191 3.035591 100 51 21
0.001568 0.119904 3.034839 100 46 22
0.008858 0.120084 3.034355 100 22 9
0.001998 0.129004 3.034121 100 0 0
-0.014846 0.054603 3.046621 100 0 1
-0.009664 0.055648 3.044388 100 33 19
-0.001772 0.055819 3.048326 100 0 0
-0.015263 0.064143 3.045415 100 14 8
-0.007749 0.064122 3.045148 100 59 27
-0.000107 0.064612 3.044023 100 10 7
0.007349 0.065831 3.045607 100 1 1
-0.025396 0.072238 3.046320 100 3 4
-0.015335 0.071421 3.045452 100 88 35
-0.008732 0.071880 3.044774 100 115 45
-0.000543 0.072201 3.044150 100 69 28
-0.025158 0.077470 3.044222 100 38 19
-0.015450 0.081957 3.045369 100 127 45
-0.008741 0.081720 3.044955 100 143 49
-0.000710 0.080610 3.043861 100 92 35
0.010632 0.086932 3.049362 100 149 51
-0.024512 0.094162 3.048122 100 129 37
-0.014678 0.091796 3.045702 100 124 45
-0.008981 0.092429 3.044923 100 140 48
-0.000148 0.091366 3.044565 100 122 40
0.012158 0.088642 3.043964 100 149 51
-0.035790 0.106730 3.047678 100 163 69
-0.024829 0.101485 3.043575 100 131 41
-0.015491 0.101038 3.045281 100 117 38
-0.007598 0.101686 3.045022 100 132 43
0.000378 0.103929 3.044641 100 128 44
0.009913 0.103260 3.045068 100 66 21
0.026016 0.105737 3.044984 100 141 41
-0.039137 0.107700 3.042958 100 165 70
-0.015821 0.108386 3.046753 100 68 22
-0.006214 0.111676 3.045449 100 119 44
0.001427 0.112537 3.044968 100 97 41
0.010046 0.112385 3.044398 100 77 25
0.022613 0.111538 3.043674 100 134 55
0.035391 0.113007 3.045115 100 140 77
-0.014329 0.122023 3.047127 100 99 32
-0.005617 0.120673 3.045157 100 48 20
0.000818 0.119882 3.044745 100 43 21
0.009432 0.120884 3.043993 100 5 4
0.020308 0.120775 3.045256 100 81 51
-0.007800 0.128446 3.045120 100 0 0
-0.000218 0.129756 3.044827 100 0 1
-0.016503 0.054748 3.056455 100 1 2
-0.010830 0.055333 3.055027 100 25 13
-0.001898 0.051769 3.050879 100 1 1
-0.024404 0.065194 3.057460 100 0 1
-0.016166 0.063715 3.055393 100 36 16
-0.008691 0.064152 3.055062 100 62 28
0.002022 0.065230 3.055496 100 2 2
0.007561 0.066018 3.054020 100 1 1
-0.025475 0.071070 3.055292 100 5 3
-0.015534 0.071589 3.055490 100 107 42
-0.009160 0.072019 3.054521 100 114 44
-0.000390 0.071316 3.054562 100 72 29
-0.032791 0.077707 3.057865 100 0 0
-0.025101 0.077410 3.054367 100 82 35
-0.015471 0.081601 3.055644 100 138 47
-0.009525 0.081934 3.054651 100 139 48
0.000690 0.082567 3.054992 100 107 37
0.010851 0.085038 3.055794 100 150 52
-0.033628 0.090771 3.057159 100 156 54
-0.026342 0.094758 3.055992 100 131 38
-0.015217 0.092117 3.055434 100 131 47
-0.009483 0.092306 3.054492 100 138 47
0.000729 0.090066 3.055484 100 102 34
0.011876 0.096049 3.054841 100 0 0
-0.033190 0.105960 3.051118 100 162 67
-0.024882 0.100859 3.056057 100 128 37
-0.015642 0.100709 3.055418 100 126 40
-0.007585 0.101911 3.054979 100 136 44
-0.000147 0.103913 3.054575 100 124 42
0.009884 0.103841 3.055461 100 104 32
0.018198 0.101356 3.059248 100 147 47
-0.043842 0.107569 3.057587 100 164 68
-0.042210 0.107105 3.059984 100 163 67
-0.014150 0.111180 3.056422 100 100 35
-0.006128 0.112006 3.055185 100 117 45
0.000656 0.112554 3.054921 100 91 38
0.009904 0.111394 3.054568 100 87 28
0.034806 0.113500 3.052867 100 143 80
-0.015683 0.123069 3.055439 100 99 34
-0.005568 0.120378 3.055140 100 37 18
0.000359 0.119754 3.054509 100 38 19
0.008836 0.122467 3.053205 100 1 2
0.024824 0.121754 3.051595 100 103 61
0.030228 0.117286 3.052813 100 140 72
-0.005489 0.129247 3.053615 100 2 2
0.001147 0.127707 3.056104 100 0 1
-0.016945 0.054511 3.065684 100 12 7
-0.008583 0.055295 3.064117 100 23 13
-0.024504 0.065512 3.066080 100 1 1
-0.016655 0.063726 3.065360 100 52 23
-0.009380 0.064241 3.064898 100 63 28
0.000262 0.064808 3.064548 100 2 2
-0.025597 0.071940 3.065301 100 38 18
-0.016306 0.071768 3.065114 100 119 46
-0.009480 0.071912 3.064646 100 107 43
0.000098 0.070798 3.065683 100 68 25
-0.033944 0.081712 3.068604 100 77 30
-0.025801 0.079807 3.065730 100 114 40
-0.016362 0.081923 3.065384 100 140 48
-0.010110 0.082197 3.064409 100 139 48
0.001951 0.083329 3.063735 100 109 40
0.007566 0.082910 3.061579 100 150 54
-0.035034 0.090174 3.065109 100 156 57
-0.024711 0.094431 3.065439 100 122 45
-0.016071 0.092354 3.065251 100 131 46
-0.009752 0.092048 3.064724 100 138 45
-0.000142 0.090825 3.064087 100 54 18
0.009770 0.093369 3.065400 100 1 0
-0.038596 0.106005 3.064399 100 162 66
-0.025928 0.099961 3.064976 100 137 42
-0.016047 0.100638 3.065571 100 126 40
-0.007956 0.102276 3.064927 100 135 44
0.000137 0.104777 3.064425 100 103 39
0.012966 0.102507 3.064542 100 120 38
0.018113 0.103497 3.063123 100 145 47
-0.025808 0.107209 3.064929 100 146 51
-0.014861 0.111336 3.064261 100 98 37
-0.006380 0.112067 3.065305 100 114 45
-0.000016 0.112538 3.064490 100 81 33
0.011260 0.110589 3.063606 100 124 39
-0.016058 0.122296 3.065662 100 73 26
-0.006326 0.120107 3.065056 100 41 20
-0.000493 0.120246 3.064343 100 28 13
0.008181 0.121477 3.063682 100 0 1
-0.007854 0.127815 3.063318 100 0 1
-0.017937 0.054795 3.075177 100 11 7
-0.010752 0.055231 3.075422 100 4 2
-0.024345 0.062894 3.076180 100 5 3
-0.017193 0.063749 3.075311 100 62 27
-0.009726 0.063840 3.074677 100 49 22
-0.000558 0.064537 3.073525 100 3 2
-0.034029 0.073526 3.074541 100 0 1
-0.025739 0.071360 3.075395 100 61 26
-0.017344 0.071820 3.075122 100 125 48
-0.009629 0.071771 3.074539 100 94 38
-0.001222 0.071117 3.074900 100 77 29
-0.034202 0.083057 3.079853 100 151 58
-0.024825 0.081035 3.075722 100 114 39
-0.017428 0.081757 3.075151 100 142 49
-0.010142 0.082735 3.074437 100 132 46
-0.001876 0.085839 3.072082 100 148 53
-0.039089 0.092371 3.075267 100 159 61
-0.025786 0.092202 3.075754 100 126 45
-0.017111 0.092539 3.075129 100 133 46
-0.010143 0.091672 3.074653 100 134 42
-0.000997 0.089832 3.074597 100 5 4
0.008359 0.096915 3.071066 100 1 1
-0.046047 0.106561 3.073633 100 161 65
-0.042658 0.105409 3.076199 100 161 65
-0.026870 0.099786 3.075086 100 134 40
-0.016468 0.101047 3.075358 100 131 41
-0.008614 0.102448 3.074840 100 134 44
0.000852 0.104373 3.074832 100 82 30
0.013840 0.102538 3.074998 100 143 46
-0.049218 0.107609 3.070832 100 162 66
-0.024069 0.107490 3.077629 100 149 55
-0.015003 0.110255 3.075424 100 108 40
-0.006822 0.112476 3.075072 100 109 44
-0.000344 0.111806 3.074444 100 72 29
0.011238 0.110484 3.073987 100 103 32
-0.024455 0.123600 3.077966 100 125 36
-0.017327 0.122069 3.075265 100 54 20
-0.007100 0.119994 3.074983 100 35 17
0.000176 0.119776 3.074155 100 7 4
-0.006629 0.129330 3.074475 100 0 2
-0.002074 0.128160 3.075070 100 4 2
-0.023968 0.054096 3.085175 100 19 10
-0.017928 0.054849 3.084825 100 24 13
-0.009642 0.052703 3.083659 100 1 0
-0.034141 0.065684 3.088486 100 44 13
-0.025521 0.063417 3.086028 100 13 6
-0.017618 0.063613 3.085138 100 69 30
-0.009786 0.063433 3.084241 100 32 15
-0.001517 0.063241 3.086013 100 2 2
-0.034942 0.072386 3.086751 100 8 5
-0.025388 0.071464 3.085533 100 93 35
-0.018475 0.071849 3.084924 100 130 51
-0.009877 0.071880 3.085033 100 79 31
-0.035326 0.081746 3.085148 100 148 55
-0.024779 0.080741 3.085609 100 130 45
-0.018115 0.082013 3.084956 100 142 49
-0.010069 0.082263 3.084217 100 132 47
-0.038459 0.091716 3.086404 100 154 57
-0.025041 0.091834 3.085618 100 110 40
-0.018229 0.092478 3.084918 100 134 46
-0.010821 0.092234 3.084278 100 130 39
0.001997 0.096597 3.084462 100 3 5
-0.050745 0.106440 3.088193 100 162 66
-0.036054 0.102312 3.086831 100 140 44
-0.027351 0.101176 3.085433 100 117 35
-0.016729 0.101331 3.085055 100 133 41
-0.009163 0.103009 3.084724 100 130 45
-0.000009 0.104342 3.084978 100 47 17
0.012725 0.102000 3.085058 100 145 45
-0.052954 0.107185 3.086435 100 161 65
-0.024414 0.108133 3.084245 100 150 56
-0.015108 0.111740 3.085556 100 115 42
-0.007616 0.112324 3.085055 100 99 40
-0.000489 0.111965 3.084141 100 62 24
-0.027040 0.125033 3.084571 100 126 40
-0.015743 0.121110 3.084993 100 39 18
-0.008719 0.119800 3.084860 100 31 16
-0.000617 0.119407 3.084720 100 12 6
-0.013003 0.130408 3.086747 100 0 0
-0.005117 0.128395 3.084669 100 0 0
-0.002770 0.129176 3.081287 100 5 2
-0.023858 0.053739 3.095667 100 1 0
-0.018989 0.055137 3.094739 100 21 12
-0.012241 0.052014 3.095050 100 2 1
-0.034064 0.065900 3.094346 100 1 1
-0.025334 0.063469 3.095631 100 37 15
-0.018358 0.063116 3.094846 100 72 30
-0.010001 0.062320 3.094444 100 32 15
-0.000939 0.063121 3.094305 100 0 1
-0.035544 0.074227 3.095223 100 50 23
-0.024801 0.071792 3.095581 100 117 45
-0.019290 0.071774 3.094672 100 128 51
-0.010266 0.071557 3.094741 100 92 34
-0.038717 0.082835 3.095358 100 153 58
-0.025397 0.081366 3.095433 100 139 49
-0.018753 0.082074 3.094844 100 140 48
-0.010515 0.081696 3.093923 100 112 41
-0.043515 0.088725 3.098205 100 163 63
-0.038379 0.091656 3.092759 100 153 54
-0.024389 0.091826 3.095658 100 115 41
-0.019033 0.092508 3.094838 100 135 44
-0.011110 0.091525 3.093709 100 131 42
0.003909 0.091123 3.095063 100 1 1
-0.048570 0.105873 3.092067 100 160 64
-0.035079 0.100244 3.096170 100 133 37
-0.026489 0.101027 3.095480 100 124 38
-0.016903 0.101369 3.095005 100 133 41
-0.009346 0.103321 3.094882 100 122 43
-0.000383 0.104802 3.095259 100 95 28
0.011449 0.103247 3.091634 100 96 29
-0.034262 0.107275 3.098284 100 139 42
-0.029131 0.108642 3.095406 100 147 52
-0.015529 0.111118 3.095266 100 119 44
-0.008404 0.112364 3.094963 100 88 37
-0.000041 0.111176 3.093903 100 81 27
-0.027271 0.123799 3.095168 100 121 42
-0.015300 0.120016 3.095651 100 30 15
-0.009744 0.119818 3.094583 100 25 13
-0.001115 0.119331 3.094465 100 1 1
-0.008559 0.128160 3.096577 100 0 1
-0.025101 0.054241 3.105373 100 21 8
-0.018784 0.054768 3.104641 100 31 16
-0.034380 0.064174 3.106615 100 3 2
-0.025901 0.063280 3.105261 100 52 22
-0.019022 0.062582 3.104796 100 75 32
-0.009610 0.062826 3.104353 100 35 17
-0.042873 0.068964 3.102087 100 1 1
-0.037424 0.072175 3.105396 100 42 20
-0.025317 0.071748 3.105181 100 129 50
-0.019280 0.071980 3.104668 100 126 48
-0.011127 0.070925 3.103749 100 98 35
-0.034653 0.079783 3.107965 100 144 52
-0.025928 0.082181 3.104986 100 144 51
-0.019716 0.082197 3.104714 100 138 46
-0.011034 0.084258 3.102422 100 145 50
-0.035004 0.094636 3.108519 100 156 61
-0.025372 0.091750 3.105341 100 121 42
-0.019297 0.092680 3.104690 100 137 44
-0.010816 0.094215 3.104141 100 108 36
-0.035338 0.101389 3.105720 100 131 36
-0.025846 0.100680 3.105179 100 126 38
-0.017485 0.101802 3.105000 100 132 41
-0.009870 0.103853 3.104434 100 116 42
-0.000120 0.105249 3.104993 100 87 25
-0.035243 0.107913 3.106512 100 145 54
-0.025174 0.110821 3.105708 100 91 33
-0.015748 0.112023 3.105497 100 113 43
-0.009404 0.112197 3.104818 100 80 34
-0.000596 0.109692 3.103695 100 84 25
-0.034610 0.124877 3.108476 100 127 35
-0.027247 0.122867 3.104526 100 103 39
-0.015550 0.119739 3.105370 100 23 12
-0.009774 0.119702 3.104300 100 22 12
-0.002012 0.119267 3.103649 100 0 0
-0.008854 0.128133 3.104075 100 0 1
-0.026593 0.046328 3.119523 100 1 1
-0.021018 0.046213 3.117145 100 1 1
-0.025818 0.054354 3.114882 100 19 10
-0.020310 0.054640 3.115020 100 31 14
-0.035292 0.064555 3.115780 100 14 8
-0.026481 0.063145 3.115213 100 69 29
-0.019420 0.062121 3.114592 100 72 30
-0.010053 0.061686 3.113870 100 36 14
-0.045089 0.073309 3.115016 100 0 1
-0.036353 0.071971 3.115405 100 81 35
-0.026033 0.071727 3.115383 100 136 50
-0.019829 0.071811 3.114293 100 115 43
-0.009955 0.070897 3.114124 100 38 14
-0.035153 0.082175 3.116159 100 115 45
-0.026655 0.082445 3.115149 100 143 49
-0.020703 0.082227 3.114656 100 136 45
-0.010911 0.077889 3.116734 100 18 12
-0.034745 0.092087 3.115382 100 134 52
-0.026450 0.091949 3.115187 100 128 44
-0.020002 0.093019 3.114585 100 135 41
-0.005208 0.095097 3.116952 100 6 4
0.000563 0.090837 3.115171 100 1 3
-0.045299 0.101602 3.116962 100 147 51
-0.037008 0.101249 3.115195 100 133 39
-0.026273 0.100880 3.115303 100 124 37
-0.017595 0.102332 3.114856 100 133 44
-0.009469 0.104221 3.114659 100 99 36
-0.000644 0.105834 3.114277 100 120 35
-0.035551 0.108572 3.116867 100 139 45
-0.025236 0.109797 3.114758 100 95 35
-0.016176 0.112435 3.115377 100 103 41
-0.009933 0.111666 3.114483 100 74 29
-0.001133 0.108529 3.116138 100 132 40
-0.035761 0.125495 3.115118 100 129 37
-0.026228 0.122156 3.115199 100 41 18
-0.016516 0.119600 3.114805 100 21 12
-0.009906 0.120062 3.114680 100 13 6
-0.002165 0.120716 3.112015 100 1 1
-0.014360 0.127979 3.113364 100 0 1
-0.027984 0.045723 3.125906 100 0 2
-0.026450 0.054008 3.125150 100 33 16
-0.020439 0.055171 3.124378 100 18 8
-0.044115 0.066256 3.125395 100 4 3
-0.035714 0.064156 3.125664 100 28 13
-0.027112 0.062966 3.125211 100 84 35
-0.019591 0.061664 3.124200 100 58 25
-0.010355 0.061429 3.123485 100 43 17
-0.046147 0.073751 3.125268 100 7 5
-0.035875 0.071533 3.125631 100 116 45
-0.027085 0.071721 3.125039 100 139 51
-0.019300 0.071957 3.124892 100 84 33
-0.009927 0.070912 3.123609 100 30 10
-0.047167 0.084325 3.128552 100 156 59
-0.034850 0.082724 3.125633 100 119 44
-0.027788 0.082257 3.125013 100 143 49
-0.020710 0.082442 3.123671 100 131 41
-0.044939 0.096437 3.128033 100 130 35
-0.035538 0.091690 3.125699 100 135 50
-0.027389 0.092068 3.125084 100 131 44
-0.020667 0.093600 3.124556 100 131 39
-0.009222 0.095938 3.122912 100 36 16
-0.002503 0.090252 3.127187 100 1 1
-0.054315 0.104531 3.125410 100 159 63
-0.046010 0.100062 3.123735 100 136 41
-0.038230 0.101346 3.125293 100 135 40
-0.027029 0.101023 3.125277 100 126 38
-0.018455 0.102707 3.124836 100 128 44
-0.009873 0.104062 3.124759 100 81 28
0.000342 0.104174 3.124852 100 137 37
-0.036919 0.112196 3.125159 100 132 39
-0.024934 0.111177 3.125276 100 103 39
-0.017029 0.112326 3.125149 100 93 38
-0.010375 0.111492 3.124110 100 65 26
-0.002106 0.108456 3.123041 100 132 40
-0.036808 0.124181 3.125707 100 126 40
-0.025703 0.120375 3.124730 100 20 11
-0.017787 0.119574 3.124888 100 20 11
-0.009279 0.119545 3.124192 100 17 7
-0.016535 0.128409 3.125081 100 0 1
-0.028880 0.044344 3.135022 100 2 3
-0.020456 0.046516 3.134841 100 0 1
-0.034273 0.054862 3.135792 100 2 2
-0.027714 0.054042 3.135317 100 29 14
-0.021406 0.054308 3.134570 100 11 4
-0.044775 0.064312 3.137075 100 18 7
-0.035705 0.063251 3.135782 100 53 22
-0.028119 0.062710 3.134918 100 92 38
-0.020008 0.061593 3.134206 100 44 20
-0.011287 0.061232 3.134951 100 0 0
-0.047303 0.072978 3.134936 100 32 17
-0.035169 0.072131 3.135889 100 120 46
-0.028617 0.071767 3.134930 100 139 51
-0.020017 0.071808 3.134642 100 75 29
-0.012562 0.074419 3.133237 100 0 0
-0.044601 0.079022 3.137476 100 148 53
-0.034762 0.082155 3.135686 100 140 50
-0.028801 0.082271 3.134598 100 140 47
-0.020681 0.082789 3.134605 100 138 47
-0.045804 0.094403 3.134949 100 135 39
-0.034894 0.091429 3.135748 100 117 42
-0.028547 0.092196 3.134972 100 133 44
-0.020931 0.094371 3.133758 100 128 39
-0.009240 0.090440 3.134737 100 52 28
-0.063898 0.105826 3.132759 100 160 64
-0.061564 0.105180 3.136429 100 158 62
-0.046944 0.098946 3.135631 100 133 39
-0.037311 0.100784 3.135908 100 127 39
-0.026873 0.101663 3.135155 100 129 40
-0.018592 0.103218 3.134917 100 121 44
-0.010161 0.104230 3.134252 100 65 20
0.000687 0.104634 3.132483 100 137 38
-0.037171 0.111198 3.136189 100 130 36
-0.025175 0.111162 3.135772 100 112 42
-0.018060 0.112341 3.134770 100 81 34
-0.010914 0.112443 3.134181 100 58 22
-0.043505 0.125748 3.136590 100 128 40
-0.037188 0.123352 3.134727 100 116 40
-0.025036 0.119711 3.135689 100 17 9
-0.019172 0.119322 3.134793 100 16 9
-0.010226 0.120059 3.134123 100 20 7
-0.016659 0.130138 3.133987 100 0 0
-0.033805 0.044592 3.146339 100 0 0
-0.029726 0.045965 3.143803 100 2 2
-0.043224 0.056777 3.149050 100 3 4
-0.035405 0.054869 3.145912 100 5 3
-0.028468 0.053961 3.145002 100 41 19
-0.022284 0.054821 3.145231 100 1 1
-0.044896 0.063146 3.146897 100 9 5
-0.035750 0.062833 3.145570 100 69 29
-0.029071 0.062495 3.144730 100 92 39
-0.020451 0.062382 3.143952 100 62 26
-0.054999 0.073305 3.147575 100 0 2
-0.045773 0.072051 3.145365 100 92 39
-0.035281 0.072058 3.145814 100 133 48
-0.029595 0.071516 3.144627 100 135 49
-0.020792 0.071707 3.144078 100 53 21
-0.047487 0.081653 3.145315 100 151 56
-0.035740 0.082088 3.145085 100 142 47
-0.029348 0.082553 3.144624 100 135 45
-0.020754 0.083852 3.143673 100 124 44
-0.046175 0.092855 3.145067 100 142 47
-0.035209 0.091701 3.145510 100 120 42
-0.029299 0.092657 3.144530 100 136 43
-0.019041 0.093962 3.144791 100 103 38
-0.056110 0.102084 3.144433 100 147 52
-0.046041 0.100119 3.145750 100 131 37
-0.036346 0.100608 3.145919 100 117 36
-0.027314 0.101887 3.144982 100 132 42
-0.019159 0.103573 3.144719 100 109 41
-0.010131 0.104362 3.145536 100 67 22
-0.037476 0.111230 3.146004 100 113 33
-0.025632 0.111990 3.145561 100 100 39
-0.019144 0.112079 3.144656 100 75 31
-0.011620 0.112314 3.144002 100 70 24
-0.045016 0.124279 3.145130 100 129 37
-0.037603 0.123922 3.144213 100 91 36
-0.025489 0.119093 3.145143 100 10 6
-0.019894 0.119181 3.144227 100 24 13
-0.011252 0.120264 3.144448 100 0 1
-0.002220 0.120261 3.144689 100 133 45
-0.037870 0.127898 3.148757 100 8 5
-0.035697 0.044774 3.155547 100 1 2
-0.029692 0.046281 3.154970 100 41 23
-0.047330 0.055357 3.157944 100 0 1
-0.036060 0.053871 3.155239 100 12 6
-0.029082 0.054281 3.154495 100 40 18
-0.020158 0.056942 3.151579 100 0 0
-0.056587 0.066257 3.153411 100 42 15
-0.046404 0.063716 3.154722 100 30 15
-0.036221 0.063023 3.155437 100 90 38
-0.029507 0.062287 3.154787 100 95 39
-0.020168 0.062108 3.154057 100 41 16
-0.055233 0.069367 3.156808 100 42 15
-0.046146 0.071367 3.155889 100 109 43
-0.036601 0.071892 3.155267 100 138 51
-0.029891 0.071029 3.154579 100 127 47
