ply
format ascii 1.0
element vertex 903
property float x
property float y
property float z
property uchar red
property uchar green
property uchar blue
end_header
0.174983 -0.028264 1.856752 88 51 16
0.165893 -0.038434 1.858751 39 34 27
0.153578 -0.015074 1.867707 37 37 39
0.164118 -0.015344 1.862070 35 26 12
0.157456 -0.023181 1.865555 30 24 14
0.165379 -0.023023 1.863137 28 22 12
0.191423 -0.020754 1.868627 34 35 38
0.157056 -0.030876 1.865041 73 73 34
0.164962 -0.031455 1.865532 53 35 14
0.175752 -0.031939 1.866147 91 54 23
0.156484 -0.038838 1.865603 67 62 26
0.166367 -0.038224 1.866189 40 27 14
0.148588 -0.001913 1.874561 75 57 25
0.154612 -0.004735 1.875010 77 88 37
0.158513 -0.005929 1.872848 71 97 38
0.163665 -0.009231 1.877640 72 98 38
0.158707 -0.023352 1.875976 32 29 17
0.164565 -0.020675 1.876194 52 43 27
0.179005 -0.020471 1.876317 47 34 25
0.186420 -0.019120 1.877355 43 46 47
0.157004 -0.030958 1.875217 88 98 44
0.166203 -0.031200 1.875782 67 57 25
0.176894 -0.031435 1.876569 52 36 16
0.186267 -0.032135 1.877481 79 53 23
0.157028 -0.040138 1.875934 75 77 35
0.166709 -0.040525 1.876189 30 23 12
0.176565 -0.038551 1.876974 14 12 6
0.185024 -0.039288 1.878113 19 24 14
0.166146 -0.045966 1.879159 81 55 30
0.197292 0.028930 1.883879 88 67 29
0.199831 0.023004 1.889594 86 68 28
0.181712 0.005046 1.887448 80 95 59
0.181499 -0.000579 1.889035 80 101 54
0.151849 -0.008525 1.884142 80 54 27
0.157527 -0.010665 1.884218 81 77 33
0.168743 -0.014089 1.887256 34 34 15
0.173844 -0.012866 1.888672 4 2 3
0.188029 -0.013677 1.887399 22 24 23
0.159035 -0.022246 1.886030 50 56 29
0.165873 -0.020822 1.886915 64 62 28
0.175818 -0.021978 1.886437 89 69 30
0.186660 -0.024662 1.886945 87 101 44
0.196898 -0.024679 1.888912 71 54 20
0.205702 -0.023768 1.888573 44 32 17
0.288776 -0.023609 1.889439 101 128 83
0.156909 -0.031087 1.885389 109 125 60
0.167098 -0.031509 1.886335 86 103 44
0.177372 -0.031554 1.885975 81 81 38
0.187079 -0.030930 1.886861 63 56 26
0.196825 -0.032474 1.888228 29 28 21
0.204647 -0.028927 1.888528 0 0 1
0.167406 -0.040276 1.885309 66 65 33
0.176725 -0.039354 1.886593 47 42 22
0.186173 -0.039771 1.886207 34 33 16
0.193557 -0.038248 1.889457 1 0 1
0.218555 -0.044929 1.884898 64 69 70
0.166830 -0.047762 1.886256 60 38 15
0.173539 -0.045996 1.889264 102 50 18
0.217618 -0.048056 1.884018 55 58 61
0.213687 0.036250 1.892993 5 7 4
0.216742 0.031488 1.896653 33 38 20
0.225486 0.029087 1.897434 83 102 52
0.198928 0.020109 1.892513 86 66 24
0.203399 0.018264 1.893390 81 77 29
0.176911 0.005129 1.895258 67 43 15
0.186735 0.007244 1.899981 84 61 25
0.206404 0.013851 1.898845 77 81 29
0.168738 -0.004200 1.896757 21 14 9
0.178005 -0.001340 1.897881 49 39 22
0.185092 -0.002511 1.897146 78 88 45
0.196538 -0.003924 1.897556 39 46 23
0.217445 -0.001140 1.898003 93 89 34
0.224849 -0.003460 1.899383 115 74 30
0.161146 -0.013400 1.892254 34 25 12
0.168774 -0.013292 1.895429 40 36 19
0.176497 -0.012391 1.897241 39 42 23
0.186245 -0.011110 1.898105 51 61 28
0.195426 -0.008757 1.898052 58 72 33
0.208739 -0.009657 1.895476 83 81 34
0.215404 -0.007441 1.898105 98 77 27
0.224472 -0.014157 1.898435 6 5 4
0.236268 -0.013806 1.899048 70 42 14
0.318501 -0.012993 1.899462 86 119 43
0.159613 -0.022100 1.893560 60 63 32
0.167473 -0.020514 1.895249 68 82 41
0.176941 -0.021137 1.897267 74 94 42
0.187048 -0.022263 1.898174 75 99 42
0.197454 -0.023355 1.897136 80 96 44
0.208539 -0.022382 1.896923 59 63 30
0.216616 -0.020920 1.897365 55 45 23
0.227005 -0.021306 1.894946 22 21 12
0.290324 -0.021520 1.896428 99 125 81
0.318156 -0.016273 1.898270 88 119 42
0.157016 -0.031786 1.894423 90 100 44
0.167775 -0.030769 1.895025 78 96 43
0.177501 -0.031507 1.895870 81 99 47
0.187432 -0.032086 1.896115 73 83 41
0.197108 -0.031640 1.896756 57 57 30
0.206406 -0.030683 1.897064 32 32 17
0.215498 -0.028445 1.896797 16 19 14
0.222975 -0.026362 1.898067 3 3 4
0.281226 -0.033730 1.897078 27 33 23
0.285965 -0.028097 1.894968 89 110 78
0.167508 -0.039497 1.893797 82 92 47
0.177643 -0.039161 1.894335 65 67 37
0.186983 -0.038222 1.895734 44 38 21
0.195341 -0.037719 1.896133 31 25 12
0.206862 -0.038712 1.896129 43 35 22
0.168398 -0.049092 1.894411 63 51 22
0.176993 -0.047889 1.894851 65 45 21
0.184421 -0.047241 1.899581 100 62 29
0.207401 -0.046612 1.893163 5 6 7
0.212303 0.027367 1.902193 3 3 1
0.217134 0.025292 1.902141 35 37 21
0.224049 0.025693 1.900456 77 94 45
0.208695 0.021623 1.906657 21 15 8
0.218361 0.018170 1.907491 53 57 29
0.222916 0.021875 1.904122 73 87 42
0.187775 0.006667 1.902367 70 53 23
0.199447 0.007825 1.906790 75 57 28
0.206079 0.007096 1.906168 70 66 29
0.218924 0.008269 1.908686 67 68 35
0.226043 0.008244 1.907685 57 62 34
0.271828 0.008799 1.907934 65 42 19
0.170557 -0.004526 1.904953 74 49 18
0.179381 -0.003357 1.905896 54 38 17
0.187860 -0.003251 1.906016 37 32 15
0.197665 -0.002091 1.907150 39 42 20
0.205925 -0.001701 1.907084 57 69 32
0.217595 0.000096 1.906155 73 87 36
0.227294 -0.001387 1.906136 92 99 39
0.236838 -0.002582 1.907311 109 108 50
0.169943 -0.012536 1.902369 51 47 25
0.178652 -0.011784 1.904339 57 64 33
0.187404 -0.010721 1.905593 63 75 37
0.196647 -0.011043 1.906193 74 93 42
0.207509 -0.010252 1.907189 80 107 45
0.217970 -0.011882 1.905360 91 106 49
0.227617 -0.011698 1.906564 115 140 56
0.238467 -0.012059 1.905665 80 55 24
0.247540 -0.009595 1.907872 83 50 13
0.289747 -0.014205 1.906158 101 127 82
0.294037 -0.013063 1.906875 100 125 83
0.315249 -0.015474 1.908665 85 115 47
0.158591 -0.024349 1.904879 65 69 35
0.169125 -0.020840 1.902231 69 77 37
0.178135 -0.020321 1.903977 74 93 42
0.187523 -0.021121 1.905298 76 100 43
0.197340 -0.021521 1.906184 76 101 43
0.207588 -0.022598 1.907133 76 96 42
0.216932 -0.022520 1.906978 73 86 40
0.227029 -0.021957 1.907484 61 68 33
0.236039 -0.019667 1.908349 49 46 24
0.251318 -0.017784 1.903514 0 0 0
0.254058 -0.016462 1.908051 1 0 0
0.287254 -0.021480 1.905166 90 111 80
0.293218 -0.018357 1.905250 96 119 81
0.314880 -0.022132 1.905774 74 95 45
0.167137 -0.030945 1.903816 64 74 33
0.178236 -0.029914 1.903174 77 96 45
0.188164 -0.030851 1.903934 81 98 48
0.197787 -0.030634 1.904647 73 85 42
0.207123 -0.029576 1.905780 58 61 31
0.216221 -0.028586 1.906512 36 35 19
0.224961 -0.027931 1.907170 19 19 14
0.281592 -0.028860 1.904552 29 38 26
0.285415 -0.030094 1.905490 18 24 16
0.312939 -0.028298 1.905374 36 45 23
0.166602 -0.039236 1.903685 72 84 39
0.178403 -0.039190 1.902940 91 109 56
0.187897 -0.038791 1.903678 75 85 49
0.196485 -0.038312 1.904132 42 37 22
0.205764 -0.037329 1.906045 61 40 18
0.214114 -0.037071 1.902385 80 62 25
0.168280 -0.048275 1.905709 43 31 15
0.176332 -0.048568 1.902847 98 85 41
0.252449 0.025653 1.919611 97 107 75
0.301043 0.031979 1.919334 15 17 12
0.303603 0.033729 1.918057 12 13 10
0.218129 0.016582 1.917148 55 41 19
0.223435 0.015594 1.919739 68 54 23
0.238186 0.016692 1.918433 26 29 20
0.247739 0.015999 1.918327 47 57 30
0.263263 0.015262 1.912214 1 0 1
0.172430 0.006752 1.916978 99 57 20
0.175851 0.006721 1.919438 105 63 25
0.188194 0.006445 1.917471 31 18 6
0.200231 0.005774 1.917297 30 21 9
0.208931 0.006215 1.915129 39 29 12
0.217470 0.006823 1.916870 36 36 18
0.227229 0.007781 1.916501 47 50 24
0.236703 0.008489 1.916999 63 77 34
0.246060 0.009545 1.918753 75 80 34
0.254852 0.011335 1.919119 83 54 22
0.275670 0.012090 1.918440 67 65 59
0.171686 0.000571 1.911437 90 58 17
0.179305 -0.001026 1.913929 85 72 34
0.188223 -0.002024 1.914894 60 60 33
0.198720 -0.002304 1.914276 58 62 32
0.207352 -0.000496 1.915894 59 68 33
0.216636 -0.000398 1.917128 72 86 39
0.226345 0.000688 1.915311 84 91 38
0.237966 -0.000964 1.914277 113 137 61
0.245246 -0.001220 1.917397 135 151 76
0.268356 0.002612 1.914430 60 38 21
0.280534 -0.005019 1.916596 1 0 0
0.288319 -0.005411 1.918059 101 127 77
0.179712 -0.011269 1.912060 64 75 42
0.188849 -0.010727 1.912865 70 86 41
0.197706 -0.010669 1.914163 70 90 41
0.207586 -0.011510 1.916159 74 99 41
0.217178 -0.011762 1.916987 77 103 41
0.226906 -0.012364 1.917063 77 102 40
0.237384 -0.011913 1.916716 86 102 43
0.246439 -0.011679 1.916320 89 77 32
0.256320 -0.013651 1.918322 29 22 13
0.276108 -0.007601 1.915591 1 0 0
0.289418 -0.011272 1.915073 97 119 80
0.296008 -0.011621 1.914986 98 122 74
0.311915 -0.007664 1.917418 83 117 46
0.314043 -0.012914 1.915588 75 100 47
0.157285 -0.023515 1.914965 57 57 26
0.177524 -0.021206 1.912435 66 65 33
0.188631 -0.020020 1.912664 72 86 39
0.198392 -0.020602 1.913300 79 102 45
0.207940 -0.020731 1.914236 79 102 44
0.217675 -0.021177 1.915204 80 99 45
0.227419 -0.021458 1.916499 70 82 40
0.236203 -0.020729 1.916951 53 57 27
0.246717 -0.018966 1.917863 21 22 12
0.254087 -0.018315 1.916123 0 0 1
0.288590 -0.022306 1.914839 26 31 24
0.314180 -0.022075 1.915561 15 20 11
0.188440 -0.030096 1.913092 65 78 37
0.198149 -0.029434 1.912695 76 96 45
0.207676 -0.028825 1.913429 68 81 40
0.217104 -0.028947 1.914109 54 55 28
0.226752 -0.028167 1.915398 35 29 15
0.235239 -0.027109 1.917850 24 17 9
0.242944 -0.026100 1.918868 2 2 1
0.287632 -0.028262 1.912320 2 2 2
0.311168 -0.027842 1.913970 3 4 3
0.186536 -0.038404 1.912021 91 118 56
0.197537 -0.038362 1.913060 93 107 58
0.208492 -0.038339 1.914584 59 59 37
0.216438 -0.040023 1.917998 37 33 22
0.224057 -0.037565 1.919496 97 60 27
0.190121 -0.053430 1.910609 88 73 40
0.207030 -0.047130 1.916416 34 28 15
0.212666 -0.048686 1.918113 2 1 1
0.246981 0.035436 1.924080 61 44 19
0.254960 0.035991 1.927357 20 21 22
0.268480 0.034683 1.927573 80 105 46
0.238917 0.028692 1.926373 48 32 17
0.246878 0.028756 1.926205 66 54 30
0.259668 0.029890 1.927435 65 71 61
0.267791 0.027000 1.927024 44 54 29
0.276428 0.029539 1.929994 0 0 1
0.292626 0.029272 1.928591 0 0 2
0.299625 0.026667 1.928167 86 89 69
0.307111 0.025966 1.926587 50 46 33
0.314689 0.027767 1.928425 43 43 41
0.190004 0.015430 1.929553 39 27 9
0.221941 0.016049 1.926901 84 52 19
0.228703 0.016143 1.926448 42 29 15
0.238791 0.016073 1.926792 19 18 11
0.247045 0.016937 1.926461 20 21 11
0.257596 0.017655 1.926753 61 65 30
0.265968 0.018741 1.925104 38 26 11
0.277403 0.019580 1.924834 57 46 25
0.295238 0.018952 1.922064 134 86 44
0.188758 0.007999 1.924782 66 54 24
0.196084 0.007280 1.924481 42 43 21
0.209143 0.007476 1.923926 51 45 20
0.218877 0.007291 1.923686 53 51 25
0.227819 0.008368 1.925452 54 60 31
0.236813 0.009814 1.926808 62 73 36
0.246580 0.011219 1.925648 75 84 39
0.256115 0.011650 1.925911 103 118 56
0.272292 0.007278 1.925650 86 88 69
0.278609 0.010335 1.925631 67 69 52
0.288199 0.008019 1.928491 38 39 32
0.292974 0.010775 1.923346 1 1 1
0.178671 -0.000549 1.923377 76 73 32
0.189016 0.001376 1.922294 80 89 39
0.198666 -0.002200 1.922005 75 95 41
0.208935 -0.001630 1.922810 70 86 40
0.217912 -0.000507 1.924091 73 92 42
0.227438 -0.001282 1.925839 78 102 43
0.236594 -0.001679 1.927582 82 108 45
0.245832 -0.001871 1.927007 94 119 54
0.259377 -0.005463 1.928371 94 112 52
0.268455 -0.002509 1.927806 54 59 32
0.278350 -0.001935 1.926199 33 29 23
0.287091 -0.003268 1.926991 78 92 55
0.309536 -0.002456 1.925421 85 117 48
0.188464 -0.013300 1.922762 30 24 13
0.198000 -0.010210 1.923064 43 50 24
0.208808 -0.010152 1.922626 74 93 41
0.218453 -0.010922 1.923090 78 103 42
0.227832 -0.010701 1.924893 82 108 44
0.237248 -0.011402 1.926425 89 113 48
0.246980 -0.012384 1.926802 89 103 46
0.256680 -0.012291 1.927169 58 61 28
0.266268 -0.010259 1.927222 41 44 21
0.273455 -0.011589 1.928208 3 3 2
0.288814 -0.011699 1.925196 51 63 39
0.295210 -0.014173 1.925117 47 57 29
0.307537 -0.010480 1.929236 19 24 14
0.313612 -0.011766 1.922622 39 52 26
0.188364 -0.023468 1.923446 2 2 1
0.199630 -0.021518 1.922994 50 56 26
0.208948 -0.019940 1.923370 73 92 42
0.218443 -0.020250 1.923123 76 95 43
0.228064 -0.019626 1.923777 78 93 44
0.237484 -0.019466 1.924632 70 78 40
0.246803 -0.018495 1.926201 50 51 28
0.255882 -0.018029 1.926626 19 16 11
0.265774 -0.019538 1.927661 55 40 15
0.290163 -0.018651 1.924346 3 4 3
0.297318 -0.017114 1.922877 33 40 23
0.189439 -0.029739 1.921294 62 72 37
0.196133 -0.028673 1.924630 44 56 28
0.209081 -0.028463 1.922089 66 86 40
0.217720 -0.029262 1.922907 85 101 53
0.228372 -0.030085 1.923309 62 56 29
0.236769 -0.029038 1.925187 39 31 16
0.244196 -0.028187 1.926988 57 37 17
0.260957 -0.026409 1.923256 94 63 31
0.210547 -0.040378 1.920766 71 73 60
0.220378 -0.041693 1.923180 70 42 20
0.228268 -0.037256 1.924837 93 54 20
0.310408 0.086889 1.936354 67 70 74
0.259445 0.075771 1.938974 0 0 0
0.301964 0.077558 1.939887 31 31 36
0.307061 0.081448 1.937991 47 49 53
0.312706 0.082582 1.936795 51 54 57
0.268901 0.035733 1.931059 57 69 39
0.305237 0.035508 1.936145 0 0 3
0.359809 0.037087 1.939006 2 1 2
0.247796 0.025721 1.935528 22 15 8
0.258122 0.026172 1.936720 28 24 12
0.267035 0.026631 1.937240 25 24 14
0.276656 0.027431 1.937163 17 16 9
0.288473 0.029918 1.938642 16 10 7
0.298433 0.029209 1.934867 54 56 44
0.308785 0.027404 1.932811 88 88 73
0.318238 0.026616 1.935946 77 64 48
0.328650 0.029381 1.938448 37 35 30
0.352905 0.032909 1.939368 2 3 3
0.192059 0.015988 1.931065 0 1 1
0.198260 0.016862 1.934847 59 48 21
0.206813 0.018840 1.936770 42 36 16
0.219078 0.017420 1.934883 66 54 23
0.228290 0.017443 1.934556 49 43 19
0.238371 0.017043 1.934228 44 39 19
0.248178 0.017655 1.935086 47 50 27
0.256759 0.018902 1.936942 56 64 33
0.266726 0.019939 1.936740 68 81 37
0.275961 0.021020 1.937169 80 93 42
0.287902 0.020330 1.936744 80 71 27
0.298358 0.016658 1.936254 118 113 70
0.309179 0.019691 1.936865 50 44 26
0.316883 0.020979 1.936994 32 23 14
0.324888 0.022076 1.939850 4 1 2
0.191826 0.013203 1.930444 70 60 25
0.197997 0.010284 1.933420 95 97 41
0.207922 0.009928 1.934400 81 90 34
0.218449 0.009070 1.932584 83 89 36
0.228599 0.008436 1.933370 67 82 37
0.238383 0.008947 1.933385 73 90 43
0.247538 0.009202 1.935929 87 107 51
0.256308 0.008434 1.938014 88 113 50
0.266559 0.008941 1.938166 88 114 48
0.276881 0.007922 1.937314 91 113 50
0.286454 0.006421 1.937877 81 97 39
0.296880 0.006444 1.937506 77 86 37
0.306214 0.007875 1.938149 61 72 31
0.313633 0.004918 1.939950 71 47 21
0.201747 0.002920 1.930837 80 105 38
0.210921 -0.001427 1.931637 22 18 13
0.219386 0.000296 1.931880 52 57 27
0.228624 0.000320 1.932043 72 92 39
0.238593 -0.000418 1.932631 81 106 43
0.247356 -0.000585 1.934657 87 113 47
0.257015 -0.000785 1.937077 89 114 46
0.267416 -0.002150 1.937040 91 111 46
0.276977 -0.002248 1.936935 71 83 39
0.286731 -0.001107 1.937477 47 50 24
0.297213 0.000492 1.937506 25 24 11
0.306526 0.000196 1.936539 71 63 30
0.318032 -0.000197 1.936068 9 9 8
0.323351 -0.003174 1.932828 3 1 2
0.200484 -0.010759 1.930162 10 10 9
0.206974 -0.014281 1.935058 18 21 13
0.218291 -0.010468 1.932965 75 78 39
0.228471 -0.010187 1.932777 76 87 38
0.238716 -0.010531 1.932632 84 108 47
0.248043 -0.010812 1.933712 88 107 48
0.257520 -0.010913 1.934940 77 89 42
0.267127 -0.009932 1.935962 54 55 28
0.275916 -0.008541 1.937168 33 27 14
0.286954 -0.008666 1.935234 25 16 7
0.296443 -0.008221 1.935502 41 25 13
0.309618 -0.009809 1.935750 1 1 3
0.314052 -0.006982 1.938346 1 1 1
0.323269 -0.007250 1.930028 3 0 2
0.209057 -0.018618 1.934298 61 70 36
0.218422 -0.018997 1.934582 40 49 25
0.229052 -0.019445 1.932806 47 53 23
0.238247 -0.018743 1.933087 59 62 29
0.247573 -0.018089 1.933359 56 57 29
0.257513 -0.018296 1.934433 38 34 22
0.265402 -0.017563 1.936884 40 27 14
0.282105 -0.018119 1.931204 1 3 1
0.218703 -0.032088 1.930919 76 84 72
0.225545 -0.031260 1.933756 101 122 57
0.238861 -0.031091 1.932528 77 59 28
0.248025 -0.028896 1.933657 65 40 15
0.235937 -0.038119 1.934572 112 71 35
0.305047 0.085249 1.943061 77 78 82
0.259318 0.079342 1.940902 36 38 39
0.267637 0.077915 1.942571 40 43 44
0.277436 0.078162 1.944822 58 60 63
0.286962 0.077232 1.947441 70 72 76
0.297761 0.079391 1.945477 69 71 75
0.304186 0.081830 1.942172 69 70 75
0.279276 0.073581 1.944122 22 23 24
0.288659 0.071469 1.947576 40 43 44
0.297089 0.069732 1.947542 25 26 28
0.290129 0.045703 1.946728 77 64 44
0.295499 0.046187 1.949445 72 53 20
0.317514 0.044577 1.948390 1 0 0
0.326128 0.046621 1.948893 1 2 3
0.339839 0.048422 1.944006 47 45 41
0.343657 0.044446 1.940807 0 0 1
0.356575 0.048410 1.947844 52 34 19
0.372292 0.047505 1.949998 1 2 1
0.269299 0.037447 1.944663 0 0 1
0.280076 0.034917 1.946935 26 19 9
0.287736 0.035533 1.947764 22 16 7
0.296863 0.037621 1.947828 16 17 9
0.306861 0.038642 1.945966 15 13 7
0.315899 0.039792 1.947398 36 23 8
0.323495 0.038874 1.946802 46 28 10
0.340120 0.036560 1.946017 65 58 45
0.346909 0.039958 1.948216 26 23 19
0.358715 0.038388 1.948145 12 8 5
0.367902 0.038364 1.949153 6 5 3
0.378145 0.037792 1.948996 54 68 43
0.218811 0.024518 1.942153 96 52 16
0.230737 0.025591 1.940603 2 1 3
0.241701 0.024383 1.940274 1 2 2
0.248675 0.027296 1.945051 65 54 31
0.258986 0.026512 1.943654 36 26 12
0.268565 0.026660 1.945068 39 40 22
0.277486 0.028259 1.946630 50 55 29
0.286628 0.029693 1.947333 60 69 33
0.296562 0.029185 1.948138 77 98 43
0.305382 0.030323 1.947965 89 106 43
0.318945 0.025252 1.946470 84 99 50
0.328075 0.026918 1.946935 75 76 41
0.336999 0.029204 1.947043 42 33 17
0.346834 0.030617 1.948519 37 36 22
0.356273 0.028413 1.947837 34 26 14
0.368439 0.028914 1.945077 49 60 39
0.375739 0.031173 1.946869 40 50 32
0.209832 0.018517 1.941926 93 91 41
0.238818 0.016679 1.943709 83 98 47
0.249059 0.017452 1.942472 53 61 30
0.258524 0.018945 1.943524 68 81 40
0.267267 0.019818 1.945354 78 95 45
0.277141 0.019090 1.946935 83 107 45
0.286976 0.017954 1.947970 84 110 44
0.297683 0.017121 1.948066 88 113 45
0.307544 0.017493 1.947344 92 113 48
0.317483 0.018159 1.947129 75 83 39
0.326542 0.019134 1.947696 33 31 15
0.335313 0.019537 1.948279 37 27 11
0.347811 0.019900 1.947747 53 36 20
0.357099 0.020891 1.948310 23 13 4
0.208396 0.013202 1.941074 85 110 45
0.230584 0.008708 1.942608 14 17 9
0.238107 0.010099 1.943849 34 37 19
0.248579 0.010005 1.942226 76 89 42
0.258169 0.009456 1.942504 84 107 45
0.267837 0.009083 1.944176 84 109 44
0.277656 0.009072 1.945905 86 112 45
0.287545 0.008699 1.946609 92 116 49
0.297486 0.008127 1.946934 87 101 46
0.307123 0.008899 1.947246 59 62 30
0.316463 0.010759 1.947271 37 31 15
0.325308 0.011907 1.947612 30 21 11
0.336071 0.011215 1.945983 70 45 19
0.347067 0.011228 1.944584 2 1 2
0.220365 -0.000249 1.941360 90 71 37
0.227406 0.000297 1.941505 60 55 30
0.237825 0.001003 1.943305 72 63 33
0.248984 -0.000785 1.942930 78 96 46
0.258528 -0.000125 1.942555 85 109 46
0.267809 -0.000640 1.943322 87 109 46
0.277769 -0.001080 1.943887 81 96 42
0.287306 0.000011 1.944914 66 71 34
0.296783 0.001152 1.945325 42 38 18
0.305655 0.002197 1.946293 20 15 8
0.316352 0.001749 1.944602 19 13 6
0.325358 0.003382 1.940138 1 2 2
0.210986 -0.013425 1.941005 15 12 8
0.231918 -0.012518 1.944157 32 19 10
0.238316 -0.011341 1.943612 18 18 10
0.248484 -0.011510 1.942463 50 58 25
0.258653 -0.009774 1.942787 67 81 35
0.267639 -0.008863 1.943238 68 76 35
0.277246 -0.008484 1.943205 53 46 22
0.286349 -0.007962 1.944544 41 30 15
0.294900 -0.007503 1.946376 64 44 28
0.209547 -0.021047 1.940844 48 50 24
0.216621 -0.019393 1.945912 67 58 30
0.229791 -0.018132 1.943547 40 42 18
0.239622 -0.017207 1.943594 19 11 6
0.249207 -0.017175 1.943781 0 0 1
0.257548 -0.021035 1.940714 53 50 30
0.268099 -0.018399 1.942453 67 49 25
0.278090 -0.017077 1.946849 63 35 15
0.250601 -0.026307 1.940101 84 54 26
0.257157 -0.029285 1.943261 53 40 27
0.262643 -0.028599 1.948497 78 51 24
0.241747 -0.038981 1.941662 90 46 14
0.256376 -0.037111 1.948580 17 17 17
0.369170 0.086275 1.954808 115 105 97
0.379605 0.085293 1.958232 61 46 39
0.291010 0.075467 1.952125 70 73 79
0.293432 0.077860 1.950238 71 74 80
0.346579 0.075731 1.956770 39 23 12
0.356230 0.075483 1.959398 55 32 17
0.368177 0.080156 1.957832 84 55 33
0.375463 0.079480 1.958062 79 57 39
0.383356 0.083061 1.956240 107 48 19
0.287155 0.064412 1.950042 2 2 3
0.300453 0.072351 1.952551 70 71 76
0.303658 0.071254 1.954084 71 72 77
0.325698 0.064438 1.959975 70 74 75
0.341399 0.066621 1.959118 93 83 63
0.344129 0.071331 1.959266 78 77 69
0.354791 0.073680 1.958385 122 118 101
0.367499 0.064882 1.959077 39 47 18
0.379079 0.067639 1.958206 18 21 10
0.387178 0.068712 1.957668 7 8 4
0.394477 0.068060 1.957999 1 1 2
0.299465 0.061674 1.950569 1 0 0
0.310951 0.057358 1.953328 49 41 30
0.317000 0.056133 1.957401 19 17 12
0.325964 0.057049 1.958755 43 41 23
0.338292 0.056494 1.959080 26 29 19
0.350736 0.055371 1.958176 93 110 48
0.360336 0.059674 1.959395 86 102 37
0.368483 0.057206 1.955685 109 84 34
0.377533 0.057462 1.957623 40 27 18
0.387867 0.060149 1.958565 36 28 16
0.393845 0.060478 1.957182 45 57 32
0.270480 0.046673 1.954199 1 2 1
0.291394 0.044332 1.959708 1 0 2
0.299801 0.046375 1.955283 64 46 22
0.308112 0.046522 1.957492 27 22 14
0.317945 0.046809 1.957068 14 15 9
0.327108 0.048834 1.956452 10 10 6
0.335926 0.051786 1.957244 8 8 4
0.350319 0.046718 1.957443 110 132 52
0.359482 0.045858 1.956662 62 57 32
0.367981 0.047857 1.956990 30 23 15
0.376966 0.049992 1.957821 9 7 7
0.385902 0.049224 1.956685 28 31 19
0.396200 0.052754 1.956441 30 39 21
0.266597 0.037460 1.955006 29 22 13
0.279526 0.036466 1.953679 12 10 5
0.288994 0.036658 1.954353 25 21 11
0.297965 0.037411 1.956128 46 48 27
0.306676 0.039054 1.957293 53 61 32
0.316151 0.039453 1.956867 59 71 32
0.327462 0.036659 1.958678 88 108 43
0.337825 0.036638 1.958414 97 115 47
0.348084 0.037175 1.957839 90 95 47
0.357293 0.038519 1.957110 35 31 17
0.365669 0.039922 1.957026 25 20 11
0.377891 0.040716 1.954641 18 19 12
0.385288 0.043474 1.954674 31 39 26
0.250474 0.031443 1.950605 47 51 48
0.260308 0.026702 1.952877 62 75 43
0.269136 0.026643 1.953116 58 63 31
0.278668 0.027949 1.953147 59 69 35
0.287720 0.029189 1.954330 73 88 43
0.297237 0.029496 1.955959 84 104 46
0.307205 0.028728 1.957081 84 108 43
0.317990 0.028071 1.956954 89 113 44
0.327948 0.027901 1.956691 101 118 50
0.337652 0.028519 1.956671 80 86 42
0.346675 0.030255 1.956776 38 35 19
0.355627 0.031144 1.955809 20 15 8
0.366138 0.031216 1.953050 1 1 2
0.248887 0.019462 1.951389 63 77 32
0.259874 0.019684 1.952809 66 81 36
0.268640 0.020410 1.952662 68 85 38
0.278111 0.020021 1.952667 80 103 44
0.287992 0.018979 1.953197 82 107 43
0.297785 0.019040 1.954595 86 110 44
0.307703 0.019063 1.954988 97 119 50
0.317785 0.018946 1.954826 90 104 46
0.327261 0.020020 1.954839 60 62 30
0.336304 0.021513 1.954949 28 22 11
0.345123 0.022152 1.955064 36 23 11
0.353692 0.023848 1.952110 34 23 8
0.230030 0.006017 1.952641 1 0 2
0.240008 0.011449 1.951954 1 1 2
0.248386 0.010222 1.953905 38 51 31
0.258786 0.009649 1.953785 67 64 34
0.268273 0.008963 1.953444 75 91 42
0.278786 0.010529 1.952699 76 97 42
0.288201 0.010319 1.952783 84 106 45
0.297960 0.010160 1.952810 88 106 47
0.307407 0.010310 1.953019 78 85 40
0.316645 0.011247 1.953115 48 44 21
0.325734 0.012298 1.954519 39 25 11
0.333057 0.012353 1.950702 79 59 28
0.247846 -0.001247 1.953283 35 42 26
0.258320 0.000333 1.954134 29 34 17
0.267821 -0.000758 1.952582 38 43 20
0.277599 -0.000055 1.953913 57 69 29
0.287949 0.000868 1.952456 50 56 26
0.297494 0.000691 1.952397 60 61 29
0.307128 0.000537 1.953851 47 39 19
0.317927 0.001282 1.957673 33 20 10
0.230194 -0.015401 1.952894 102 83 39
0.238999 -0.008270 1.951558 1 1 1
0.247670 -0.008151 1.953892 1 0 2
0.268526 -0.008313 1.952457 58 73 31
0.277863 -0.008791 1.954301 82 96 46
0.287577 -0.010024 1.954358 75 75 39
0.296483 -0.008564 1.954871 64 54 28
0.306686 -0.007986 1.957798 99 67 34
0.219117 -0.023940 1.957145 86 63 33
0.232541 -0.022563 1.957433 88 92 41
0.235747 -0.022183 1.957750 86 99 45
0.280728 -0.020579 1.954525 78 65 38
0.285705 -0.018137 1.955966 69 57 42
0.218387 -0.028319 1.956209 81 69 33
0.359711 0.077192 1.962640 82 67 51
0.367715 0.076542 1.964065 59 45 35
0.377924 0.076828 1.964538 58 47 38
0.386912 0.076366 1.965914 55 38 28
0.318372 0.064845 1.962424 72 76 78
0.326577 0.065095 1.962428 52 54 55
0.339565 0.065701 1.964361 44 28 14
0.348797 0.067348 1.965419 61 45 28
0.358316 0.067670 1.967683 42 35 26
0.368271 0.067650 1.966897 36 29 20
0.377990 0.068249 1.966798 52 44 33
0.387431 0.068309 1.967148 59 51 43
0.394411 0.067885 1.967080 42 29 16
0.320056 0.056810 1.964101 45 32 21
0.328819 0.056263 1.965600 38 28 16
0.338583 0.056699 1.966665 31 25 12
0.347822 0.057520 1.967723 46 45 24
0.357584 0.058366 1.967844 85 86 46
0.367914 0.058344 1.968111 144 135 99
0.377810 0.058820 1.967518 94 84 67
0.386346 0.060397 1.966788 39 29 21
0.393284 0.061939 1.967358 24 15 9
0.269572 0.049684 1.961927 4 4 4
0.289920 0.047218 1.965512 23 16 9
0.298949 0.045833 1.964758 31 23 10
0.309291 0.047031 1.964164 37 27 12
0.318427 0.047231 1.964380 42 40 22
0.327880 0.048487 1.965364 58 62 33
0.337485 0.049346 1.966542 76 87 41
0.347714 0.048749 1.967007 106 120 52
0.357902 0.048785 1.966369 124 130 60
0.367490 0.049257 1.965976 91 83 53
0.376214 0.050781 1.965921 38 28 18
0.384340 0.051840 1.965885 21 13 7
0.392701 0.052170 1.961106 1 1 1
0.266465 0.039516 1.964885 58 70 42
0.277546 0.039530 1.963365 39 48 25
0.288353 0.039069 1.962409 51 52 25
0.298887 0.037552 1.963108 52 57 27
0.308323 0.039147 1.963012 69 78 39
0.317537 0.039596 1.963770 86 103 50
0.327697 0.039140 1.964677 87 108 44
0.337845 0.038952 1.964971 99 118 47
0.347666 0.039100 1.964384 110 120 54
0.357104 0.039953 1.964034 74 71 35
0.366107 0.041352 1.964624 43 30 15
0.374709 0.041804 1.964294 40 24 13
0.262551 0.033886 1.969852 105 126 83
0.266572 0.029897 1.962809 92 116 61
0.279196 0.029173 1.962706 63 79 33
0.288171 0.028671 1.963199 53 62 26
0.298242 0.030427 1.962245 81 97 42
0.308291 0.029577 1.962227 82 105 42
0.317902 0.029230 1.963174 84 108 42
0.327730 0.029674 1.963561 95 115 48
0.337372 0.030253 1.963350 101 111 51
0.347008 0.030742 1.963053 69 63 31
0.356155 0.031133 1.963978 51 36 16
0.364555 0.032246 1.966795 19 15 11
0.260605 0.018156 1.967089 1 2 3
0.268317 0.020025 1.962566 19 24 12
0.278217 0.020826 1.963403 44 52 23
0.288392 0.020117 1.964054 68 75 35
0.298367 0.019788 1.962620 75 95 41
0.308226 0.020649 1.962249 78 101 40
0.317528 0.020730 1.962972 74 91 38
0.327515 0.021061 1.962684 57 63 29
0.337217 0.021387 1.962456 74 64 31
0.346499 0.020977 1.964897 60 39 19
0.354223 0.023022 1.966761 59 35 15
0.258800 0.007316 1.964294 21 14 8
0.267749 0.008219 1.963679 6 7 5
0.276844 0.010716 1.962313 30 33 21
0.287619 0.011037 1.963646 55 68 36
0.297473 0.009694 1.962894 55 68 28
0.307695 0.010625 1.963098 52 59 26
0.315933 0.010818 1.964082 85 94 46
0.327031 0.010021 1.962186 73 59 27
0.336803 0.013606 1.964185 72 46 18
0.249149 0.002935 1.960684 1 2 3
0.256364 0.003617 1.962952 34 26 17
0.264775 0.003845 1.960889 1 1 4
0.279392 -0.000174 1.961086 69 71 30
0.287449 -0.001082 1.961250 88 111 46
0.300188 0.003055 1.963688 102 116 54
0.306758 0.000870 1.961966 102 111 65
0.318161 -0.001010 1.963340 46 42 29
0.325498 0.003130 1.962032 68 40 22
0.279591 -0.007231 1.960181 93 115 47
0.289577 -0.008305 1.960807 95 108 61
0.296796 -0.011970 1.961520 81 70 45
0.306772 -0.009290 1.963926 75 69 44
0.316821 -0.006370 1.963285 8 10 8
0.239151 -0.020467 1.964103 91 85 37
0.246665 -0.018263 1.963181 80 97 44
0.297326 -0.019043 1.962026 81 61 27
0.370044 0.074827 1.976971 34 20 12
0.378992 0.076924 1.975979 42 23 11
0.386710 0.076790 1.973511 51 32 19
0.395521 0.077426 1.974019 72 47 31
0.327800 0.065681 1.975878 82 51 27
0.338787 0.065168 1.976700 40 25 12
0.348503 0.066014 1.976377 44 27 12
0.358953 0.066865 1.974144 49 31 14
0.368018 0.067570 1.973189 55 38 21
0.377557 0.068165 1.972523 65 51 38
0.386886 0.068571 1.972425 69 57 47
0.395783 0.069169 1.972879 66 45 28
0.268122 0.059029 1.973495 1 1 1
0.298237 0.055858 1.974702 1 1 3
0.309867 0.055917 1.974200 43 39 25
0.318021 0.056825 1.974387 60 47 26
0.328969 0.057496 1.973380 45 37 19
0.338652 0.057377 1.972783 47 37 18
0.348231 0.058331 1.973130 57 50 24
0.357852 0.059396 1.972804 84 77 41
0.367350 0.059885 1.972383 132 119 88
0.377223 0.059920 1.972321 108 97 78
0.386459 0.059843 1.972118 68 54 39
0.395781 0.059437 1.974916 74 49 32
0.403907 0.062030 1.976277 109 66 30
0.265779 0.049572 1.973481 32 37 29
0.289176 0.047992 1.978192 78 99 50
0.298168 0.047867 1.970709 39 45 27
0.309683 0.047317 1.972742 80 93 43
0.319169 0.048128 1.973441 73 79 38
0.327558 0.049236 1.972893 56 58 28
0.338254 0.049996 1.972414 69 75 37
0.347717 0.050067 1.972116 100 110 50
0.357385 0.050204 1.971832 128 133 61
0.367304 0.050164 1.972236 98 91 57
0.377093 0.050751 1.972463 75 57 38
0.385973 0.051241 1.973650 72 49 31
0.394708 0.051643 1.977791 58 39 27
0.260659 0.038530 1.979337 106 124 84
0.265562 0.040828 1.974462 88 108 53
0.275658 0.039376 1.973667 82 108 42
0.288828 0.041711 1.973543 64 85 36
0.299310 0.036620 1.970842 44 56 22
0.307585 0.038678 1.972291 64 72 30
0.317281 0.040221 1.973415 69 74 37
0.328189 0.038331 1.973917 72 83 43
0.338100 0.039299 1.972405 85 103 44
0.346442 0.040484 1.972115 86 100 41
0.356905 0.040271 1.971515 112 117 57
0.368594 0.039657 1.973216 93 81 55
0.376733 0.040989 1.974065 73 50 35
0.384806 0.041452 1.976830 54 32 15
0.289379 0.025669 1.975612 26 19 10
0.298277 0.029201 1.973268 19 22 13
0.308776 0.029358 1.973061 44 52 25
0.317731 0.028240 1.971895 61 76 32
0.328213 0.029262 1.973608 57 72 33
0.337698 0.030334 1.973548 50 59 26
0.347340 0.030533 1.973085 110 117 61
0.357376 0.029555 1.975472 118 111 76
0.366710 0.030612 1.973268 33 28 20
0.374763 0.033760 1.975700 38 21 8
0.267926 0.016817 1.973838 2 2 2
0.280834 0.019678 1.975682 1 1 2
0.287680 0.021872 1.974102 35 27 15
0.298285 0.017034 1.972398 71 66 36
0.310349 0.018723 1.973210 65 78 40
0.317027 0.023429 1.972720 40 49 24
0.328496 0.020495 1.971617 52 64 27
0.339512 0.019862 1.973060 119 125 72
0.346797 0.019751 1.973392 99 97 76
0.357913 0.021162 1.970269 17 10 7
0.267053 0.014016 1.970042 5 5 5
0.289619 0.005947 1.971918 0 0 0
0.299339 0.009155 1.975117 77 91 51
0.307625 0.009570 1.976108 81 97 48
0.313782 0.013756 1.972699 84 102 42
0.344583 0.012750 1.973629 81 77 73
0.306908 0.001489 1.971873 100 118 54
0.314400 -0.000318 1.971723 106 118 70
0.334613 0.075316 1.988988 0 0 0
0.358892 0.076257 1.984101 48 28 14
0.367654 0.078859 1.983743 37 22 11
0.375989 0.079466 1.981641 40 23 11
0.263265 0.065398 1.985813 0 0 1
0.317137 0.066306 1.983425 3 3 3
0.328179 0.070651 1.987323 12 13 7
0.339119 0.068625 1.983650 47 35 18
0.348141 0.068890 1.982281 33 25 11
0.357149 0.070788 1.981474 40 27 11
0.366370 0.071340 1.981868 31 20 12
0.375325 0.065370 1.980745 0 0 0
0.386354 0.067129 1.981901 57 51 47
0.265431 0.057354 1.981160 19 23 17
0.284448 0.056880 1.988257 82 105 52
0.310474 0.062925 1.982788 11 12 10
0.316109 0.063877 1.982255 4 5 5
0.327207 0.059630 1.981169 74 84 45
0.337230 0.060856 1.981861 99 98 47
0.349513 0.056910 1.981312 30 18 8
0.358528 0.058426 1.983663 20 16 12
0.367085 0.060078 1.982880 16 12 9
0.378029 0.060602 1.982473 4 2 2
0.384960 0.062349 1.981081 44 45 44
0.392938 0.058660 1.980925 86 83 79
0.408213 0.060298 1.980695 120 66 31
0.260950 0.047893 1.986317 96 111 86
0.263467 0.052614 1.983317 58 69 52
0.281430 0.049456 1.984312 78 108 39
0.288727 0.051221 1.982878 57 71 38
0.320881 0.045822 1.985878 38 45 26
0.326977 0.048797 1.981760 34 39 19
0.338943 0.047840 1.983184 24 16 9
0.347699 0.049775 1.983654 26 27 19
0.355771 0.050195 1.984196 49 50 39
0.368062 0.051457 1.983989 10 9 9
0.386235 0.046204 1.983000 128 118 106
0.393224 0.049547 1.980728 51 50 47
0.258162 0.043183 1.989727 102 120 89
0.269538 0.043777 1.985367 81 109 40
0.273763 0.039739 1.980618 77 107 36
0.308918 0.037177 1.986024 4 5 3
0.317303 0.042320 1.985566 18 21 12
0.329123 0.036994 1.981854 28 30 22
0.338877 0.038993 1.983490 78 78 46
0.346281 0.039753 1.983367 83 92 58
0.355823 0.043969 1.988578 46 47 30
0.379387 0.040306 1.982987 129 118 105
0.258794 0.033793 1.981347 96 113 77
0.280080 0.027720 1.984821 3 0 4
0.291943 0.028954 1.986074 1 1 1
0.298987 0.031088 1.983133 2 2 2
0.329003 0.028653 1.984786 78 92 60
0.336620 0.030771 1.983034 76 92 50
0.347438 0.030587 1.989475 59 68 40
0.366592 0.026734 1.981535 123 116 95
0.373982 0.034050 1.985502 141 128 107
0.338327 0.019997 1.989796 74 94 50
0.294941 0.001394 1.981454 74 83 58
0.339066 0.076015 1.992637 15 15 10
0.360188 0.082748 1.991718 50 28 14
0.335155 0.073276 1.990888 20 21 13
0.278287 0.058014 1.993865 80 107 46
0.357313 0.055983 1.991227 0 0 0
0.320066 0.047238 1.993230 0 1 3
0.352307 0.050911 1.992703 0 0 1
0.358872 0.047682 1.993570 3 3 2
0.366518 0.048774 1.993758 6 6 6
0.313554 0.042772 1.992112 1 1 2
0.335610 0.041376 1.990262 77 63 29
0.348958 0.039520 1.995043 88 89 87
0.355156 0.039331 1.994859 43 45 35
0.346184 0.027086 1.994591 49 55 38
0.339685 0.018797 1.991462 74 94 47
0.346478 0.021517 1.996920 43 53 30
0.339251 0.013652 1.998096 58 68 38
0.319616 -0.004465 1.993188 94 113 49
0.322463 -0.008299 1.997782 100 115 50
0.325999 -0.006132 1.996250 104 119 53
0.361202 0.043603 2.002062 0 0 0
0.357111 0.029659 2.003294 51 51 42
0.347163 0.017765 2.001246 71 78 57
