ply
format ascii 1.0
element vertex 1307
property float x
property float y
property float z
property uchar red
property uchar green
property uchar blue
end_header
-0.501294 0.387266 2.534069 0 0 0
-0.480434 0.387929 2.532864 0 0 3
-0.471353 0.384989 2.532740 0 0 1
-0.463519 0.389901 2.535195 0 0 1
-0.455004 0.388996 2.531651 0 0 3
-0.570870 0.381497 2.536423 91 96 71
-0.560630 0.378842 2.533393 100 103 63
-0.551909 0.378700 2.533662 146 146 95
-0.542795 0.378788 2.536825 162 161 116
-0.533320 0.379969 2.538282 100 98 78
-0.521082 0.381118 2.534982 66 64 48
-0.512570 0.378359 2.533005 107 106 69
-0.502265 0.376643 2.533636 87 87 49
-0.491972 0.377617 2.533198 33 32 17
-0.482040 0.376482 2.532909 13 13 8
-0.472137 0.376442 2.532371 15 13 7
-0.463180 0.376473 2.534694 9 8 5
-0.453110 0.377164 2.533071 11 12 7
-0.442659 0.376630 2.533823 5 6 4
-0.433926 0.376151 2.531921 1 1 2
-0.424573 0.375224 2.533671 0 0 0
-0.551672 0.369054 2.534119 16 16 9
-0.542595 0.368487 2.535336 64 64 38
-0.532544 0.368511 2.533748 49 47 34
-0.520673 0.368209 2.531838 81 79 47
-0.512257 0.368022 2.533364 133 133 76
-0.502572 0.368138 2.534133 155 159 86
-0.492098 0.367933 2.533490 133 142 67
-0.482147 0.368167 2.533816 108 116 57
-0.472170 0.368550 2.533863 80 86 43
-0.462052 0.367858 2.534150 61 60 30
-0.452800 0.367366 2.534631 37 35 18
-0.442685 0.367783 2.534222 21 24 13
-0.432811 0.368231 2.534738 19 21 12
-0.423959 0.367488 2.536565 18 21 12
-0.413567 0.367093 2.537527 7 8 5
-0.404114 0.365695 2.538511 26 31 17
-0.395145 0.364472 2.537687 1 1 1
-0.541538 0.363225 2.535123 0 0 1
-0.531821 0.360577 2.533522 0 0 1
-0.521805 0.360083 2.533863 5 5 4
-0.511988 0.360460 2.534588 37 34 19
-0.501809 0.359114 2.534494 61 59 31
-0.491908 0.358939 2.534013 102 107 53
-0.482257 0.358748 2.534475 123 137 65
-0.472498 0.358628 2.534480 117 133 60
-0.462353 0.359057 2.534447 124 139 63
-0.452489 0.359186 2.535432 103 112 52
-0.442950 0.359271 2.535908 75 81 38
-0.432667 0.359089 2.536592 61 66 33
-0.423149 0.359496 2.537565 43 48 25
-0.414288 0.360446 2.538407 39 44 25
-0.406331 0.362169 2.538963 1 1 1
-0.511586 0.351241 2.535414 0 0 0
-0.501138 0.351224 2.535542 4 3 2
-0.491680 0.351059 2.535364 28 22 11
-0.481861 0.349921 2.535081 58 60 31
-0.472195 0.350072 2.535682 91 102 49
-0.462252 0.349974 2.535642 105 122 53
-0.452666 0.349779 2.536291 112 130 56
-0.442596 0.349645 2.536605 105 119 55
-0.432774 0.349468 2.536189 80 87 42
-0.423151 0.349048 2.536367 32 35 19
-0.414128 0.349045 2.536682 9 10 8
-0.401858 0.345602 2.531476 0 1 0
-0.491358 0.342757 2.535156 0 0 2
-0.481318 0.341721 2.534956 15 11 5
-0.471673 0.340321 2.536032 42 39 21
-0.462737 0.340180 2.536383 79 88 44
-0.453109 0.340325 2.535420 104 123 53
-0.442975 0.340449 2.536695 102 119 51
-0.433054 0.340419 2.536664 99 113 54
-0.422489 0.340856 2.538162 53 60 33
-0.413112 0.341877 2.538380 16 10 5
-0.393275 0.339852 2.536321 2 2 1
-0.470633 0.331806 2.534158 11 8 5
-0.461775 0.330122 2.535906 39 39 22
-0.452359 0.330072 2.536487 85 98 49
-0.442869 0.331019 2.536810 112 133 58
-0.433034 0.331407 2.535989 122 141 63
-0.424063 0.331944 2.538241 112 127 69
-0.404830 0.333124 2.539161 1 1 0
-0.262718 0.326480 2.532686 25 30 15
-0.470095 0.322785 2.531817 0 0 3
-0.459905 0.322512 2.537349 2 3 3
-0.452335 0.321866 2.538089 38 43 27
-0.443559 0.321143 2.538455 116 131 69
-0.260120 0.319412 2.533514 70 85 38
-0.257126 0.317002 2.536786 72 87 42
-0.258237 0.311465 2.534462 103 126 55
-0.255124 0.308641 2.536091 104 128 53
-0.249819 0.301689 2.538764 110 139 49
-0.119855 0.185550 2.538879 85 113 39
-0.109866 0.189255 2.534589 84 110 43
-0.110669 0.174685 2.539357 87 115 43
-0.102404 0.178861 2.535663 85 109 45
-0.091427 0.179613 2.538586 1 0 0
-0.108651 0.169862 2.538535 43 53 23
-0.101368 0.168266 2.536931 72 94 37
-0.092707 0.167212 2.536969 48 60 30
-0.083520 0.167469 2.534197 9 11 6
-0.076095 0.164858 2.530092 1 1 3
-0.132592 0.160480 2.538316 0 0 1
-0.123398 0.157580 2.532793 0 0 0
-0.100274 0.159623 2.537461 75 100 41
-0.091728 0.158341 2.536323 63 80 37
-0.083561 0.157258 2.535623 26 32 19
-0.074369 0.156479 2.535561 7 9 7
-0.063080 0.157998 2.534154 0 1 2
-0.054250 0.158508 2.532949 2 2 1
-0.129298 0.153699 2.539321 3 3 2
-0.121669 0.148662 2.535551 1 1 1
-0.113476 0.145742 2.534748 38 47 25
-0.100319 0.148981 2.537595 90 116 51
-0.091321 0.149711 2.535450 84 110 47
-0.081901 0.149968 2.534965 65 81 43
-0.073787 0.148283 2.533908 42 51 29
-0.064609 0.147289 2.533541 71 87 48
-0.053375 0.146954 2.535987 97 121 62
-0.120524 0.138407 2.538300 30 38 18
-0.112372 0.138046 2.536292 31 39 19
-0.101517 0.139350 2.536211 89 116 48
-0.091659 0.139458 2.536013 87 116 44
-0.082809 0.139842 2.533303 87 114 48
-0.072052 0.140393 2.534157 76 98 46
-0.064414 0.139191 2.532946 72 93 44
-0.050799 0.141053 2.533114 92 121 54
-0.047230 0.143069 2.530928 95 121 58
-0.119351 0.131554 2.537525 90 115 50
-0.110887 0.129279 2.536446 52 67 30
-0.102460 0.127713 2.535925 84 108 47
-0.092395 0.128275 2.535851 87 117 44
-0.084223 0.129335 2.533311 85 115 43
-0.070565 0.132626 2.531909 77 101 44
-0.061688 0.131713 2.532824 41 53 24
-0.053299 0.127001 2.533848 98 129 61
-0.128854 0.121474 2.539824 3 1 4
-0.117498 0.117065 2.539220 0 0 0
-0.109765 0.120417 2.537435 40 49 26
-0.101401 0.119238 2.535880 55 67 35
-0.092995 0.118263 2.534695 85 109 49
-0.084567 0.118381 2.533460 78 104 43
-0.073598 0.118633 2.534922 53 67 33
-0.118677 0.111345 2.537812 2 2 2
-0.110910 0.111150 2.536211 4 5 4
-0.100966 0.111947 2.535161 21 25 15
-0.092344 0.111306 2.533665 47 59 29
-0.083322 0.110480 2.533458 49 65 27
-0.074254 0.108982 2.533786 9 12 6
-0.064021 0.113209 2.536659 1 1 0
-0.104479 0.103244 2.530491 2 0 3
-0.087930 0.103820 2.530241 1 1 2
-0.081569 0.102364 2.532791 12 16 7
-0.074845 0.101497 2.534151 0 1 2
-0.063215 0.102858 2.534294 1 0 2
-0.543400 0.389548 2.543914 0 0 0
-0.535432 0.388419 2.542310 1 0 0
-0.521818 0.385252 2.543106 0 0 2
-0.510273 0.384328 2.541012 0 1 0
-0.461736 0.386459 2.541603 1 1 4
-0.450753 0.384262 2.546573 0 0 0
-0.566073 0.374286 2.541086 62 65 46
-0.539683 0.375088 2.541471 187 186 137
-0.529782 0.378240 2.541278 97 95 78
-0.522667 0.377533 2.541795 68 66 54
-0.511871 0.377762 2.543609 11 11 7
-0.502377 0.376900 2.541414 3 3 2
-0.494557 0.375724 2.542841 0 0 1
-0.483797 0.375639 2.542775 9 7 3
-0.459653 0.379556 2.541967 0 0 3
-0.453197 0.377293 2.543111 0 1 1
-0.445331 0.377325 2.546982 1 1 1
-0.432958 0.378624 2.542566 0 0 1
-0.420678 0.374627 2.549360 2 2 3
-0.561900 0.368999 2.544518 33 34 22
-0.551341 0.367766 2.543392 46 47 28
-0.541629 0.367934 2.543884 122 124 76
-0.532115 0.368519 2.543602 169 166 113
-0.522681 0.369360 2.544874 168 166 118
-0.512473 0.369609 2.545556 114 114 69
-0.501839 0.368373 2.544484 91 95 49
-0.492379 0.368753 2.544294 62 67 34
-0.482307 0.368062 2.544851 42 44 22
-0.471928 0.367644 2.542723 49 47 22
-0.462034 0.366761 2.542176 24 24 13
-0.452078 0.367676 2.542022 18 16 10
-0.442427 0.366896 2.544064 16 14 9
-0.432770 0.367547 2.543311 10 11 8
-0.422793 0.366954 2.542667 2 3 3
-0.414106 0.365601 2.542951 4 4 3
-0.551847 0.361727 2.546352 1 1 2
-0.542422 0.361818 2.545373 25 26 15
-0.532299 0.361357 2.543702 37 37 22
-0.522396 0.358514 2.544550 49 49 30
-0.510943 0.358164 2.543298 61 61 37
-0.502137 0.358136 2.542819 84 86 46
-0.492068 0.357786 2.543211 121 130 67
-0.481791 0.357911 2.543340 133 149 69
-0.472039 0.357919 2.543431 122 139 63
-0.462157 0.358377 2.543600 110 124 59
-0.452241 0.358644 2.543921 92 103 50
-0.442451 0.358460 2.543795 66 68 34
-0.432801 0.357727 2.544421 41 41 21
-0.422553 0.357686 2.544102 34 36 19
-0.412893 0.357994 2.545080 26 30 17
-0.402816 0.357988 2.546354 26 30 17
-0.393269 0.357660 2.545458 50 59 34
-0.384013 0.355403 2.545807 87 104 56
-0.520469 0.351859 2.545587 0 0 1
-0.511131 0.350165 2.544741 3 3 3
-0.501183 0.350146 2.544105 13 13 8
-0.491586 0.349895 2.544393 41 40 23
-0.482221 0.349555 2.544422 69 70 37
-0.471962 0.349116 2.544173 103 113 55
-0.462393 0.348812 2.544584 115 132 61
-0.452316 0.348475 2.544282 116 135 59
-0.442381 0.348774 2.544363 126 145 66
-0.432441 0.349188 2.545134 106 118 57
-0.422731 0.349082 2.546088 81 87 42
-0.413008 0.349173 2.546469 66 72 36
-0.403473 0.349429 2.547885 39 45 23
-0.393277 0.351492 2.548443 76 87 40
-0.380950 0.350069 2.547100 100 122 54
-0.372769 0.349695 2.549085 97 118 60
-0.500691 0.342481 2.548018 1 1 2
-0.492065 0.342336 2.546272 0 0 1
-0.481498 0.341242 2.546117 5 5 3
-0.471257 0.340683 2.544984 28 26 14
-0.462225 0.339609 2.545218 69 73 39
-0.452030 0.339904 2.545297 96 110 53
-0.442381 0.339845 2.545862 102 119 55
-0.432556 0.339842 2.546328 115 134 61
-0.422700 0.339695 2.546771 114 129 59
-0.413018 0.339486 2.546421 87 92 43
-0.403136 0.339548 2.547291 36 38 21
-0.393694 0.337736 2.545912 3 3 2
-0.477867 0.333455 2.549493 0 0 2
-0.471312 0.332134 2.546161 0 0 1
-0.460879 0.330992 2.544066 17 15 10
-0.452336 0.330105 2.545883 51 52 27
-0.442454 0.329793 2.546038 75 86 43
-0.432156 0.330153 2.545799 105 120 54
-0.422376 0.329758 2.546450 110 124 56
-0.413297 0.329823 2.547143 88 101 47
-0.402715 0.330235 2.547422 37 41 24
-0.394124 0.330842 2.546921 4 5 3
-0.382082 0.329533 2.547065 0 1 0
-0.376217 0.325472 2.549412 0 0 0
-0.253406 0.324961 2.542545 2 1 3
-0.458812 0.320006 2.541873 1 1 3
-0.451287 0.320290 2.544382 8 8 5
-0.442192 0.319234 2.545997 32 35 21
-0.432612 0.319393 2.546157 106 118 61
-0.422513 0.320306 2.546932 122 139 62
-0.413481 0.319740 2.547226 115 134 59
-0.405375 0.320707 2.548949 96 111 54
-0.373272 0.324026 2.549896 0 0 1
-0.367348 0.322606 2.549130 0 0 1
-0.253709 0.319236 2.542513 10 13 8
-0.441275 0.311437 2.546923 11 12 11
-0.432937 0.311815 2.547846 45 49 29
-0.423078 0.310381 2.547691 122 141 69
-0.252148 0.308921 2.543890 56 67 36
-0.250437 0.299776 2.544641 90 109 48
-0.246948 0.295299 2.546114 109 132 52
-0.243420 0.289809 2.547818 110 136 48
-0.139630 0.207368 2.548586 84 111 46
-0.137085 0.205856 2.547444 83 110 45
-0.132526 0.197592 2.548105 86 111 45
-0.126543 0.194856 2.547160 85 110 44
-0.115857 0.202776 2.548249 1 1 2
-0.105746 0.195380 2.543730 0 0 1
-0.159981 0.187064 2.547127 2 1 2
-0.156091 0.184929 2.545205 2 1 0
-0.129759 0.189933 2.548273 86 113 44
-0.122514 0.188165 2.547171 84 108 45
-0.110930 0.188281 2.547428 35 42 24
-0.103800 0.186853 2.545543 1 2 2
-0.159075 0.179662 2.548527 1 1 1
-0.152085 0.180216 2.545604 2 1 1
-0.145747 0.176420 2.542773 2 2 2
-0.120299 0.179360 2.547124 72 94 37
-0.112330 0.177447 2.545994 66 85 37
-0.102905 0.178118 2.546169 23 28 16
-0.095290 0.177193 2.543066 4 4 3
-0.150899 0.171787 2.547163 1 1 1
-0.143349 0.167362 2.544763 0 1 0
-0.118667 0.170816 2.548724 76 101 38
-0.111380 0.168933 2.546624 71 94 39
-0.102264 0.167894 2.546095 48 60 31
-0.093995 0.166622 2.545292 15 18 11
-0.082820 0.166326 2.546388 2 2 3
-0.076129 0.165500 2.544468 2 1 3
-0.140967 0.160931 2.546867 1 1 1
-0.133667 0.158102 2.544972 15 18 10
-0.119860 0.158185 2.548322 94 121 52
-0.110991 0.159422 2.546940 87 114 47
-0.101708 0.159942 2.545362 82 105 48
-0.092505 0.159224 2.544710 54 66 37
-0.083875 0.157750 2.544016 37 45 27
-0.074756 0.157715 2.543893 57 69 40
-0.062763 0.155226 2.546409 105 127 71
-0.139911 0.148913 2.548071 81 102 45
-0.131189 0.149285 2.545973 16 20 9
-0.122544 0.148116 2.545830 64 81 36
-0.111067 0.149472 2.546862 89 118 46
-0.102263 0.149138 2.545866 87 115 44
-0.092502 0.150166 2.544113 83 107 47
-0.082807 0.149901 2.543890 64 82 40
-0.073342 0.148991 2.543343 79 101 49
-0.064238 0.148907 2.544150 96 125 60
-0.129681 0.140179 2.546789 60 76 33
-0.121836 0.138702 2.546796 63 81 37
-0.112606 0.137860 2.546078 90 117 49
-0.102319 0.139134 2.545447 88 117 44
-0.094074 0.139651 2.542928 87 116 44
-0.082172 0.140926 2.542884 79 105 44
-0.073695 0.141751 2.542200 68 88 40
-0.064198 0.139317 2.542932 46 61 25
-0.128623 0.128239 2.548435 0 1 0
-0.120182 0.130508 2.546583 41 52 26
-0.112115 0.128762 2.545831 71 88 43
-0.103129 0.128352 2.544873 90 117 48
-0.093994 0.128530 2.543191 85 113 44
-0.083961 0.128445 2.543124 89 114 49
-0.070302 0.133504 2.544409 0 1 1
-0.129950 0.121462 2.548881 16 16 15
-0.120957 0.119447 2.546390 15 17 12
-0.110917 0.120954 2.545141 28 34 19
-0.102465 0.120064 2.543825 63 80 37
-0.093574 0.119195 2.543277 59 78 33
-0.084061 0.118411 2.544517 25 32 15
-0.072571 0.118630 2.544951 1 1 1
-0.111691 0.112767 2.542409 1 1 1
-0.101261 0.112706 2.543765 18 23 11
-0.092876 0.111277 2.542282 26 35 15
-0.084727 0.111657 2.542311 8 10 6
-0.075114 0.109409 2.543612 1 0 2
-0.447378 0.381324 2.553719 0 0 0
-0.443661 0.376247 2.552710 30 14 3
-0.507689 0.366228 2.550699 150 145 113
-0.503243 0.366801 2.550735 83 83 59
-0.481790 0.366348 2.551077 9 10 6
-0.472849 0.365589 2.550677 6 6 5
-0.460922 0.366623 2.551029 0 1 1
-0.456649 0.365694 2.550419 1 2 2
-0.438890 0.369796 2.551484 41 23 8
-0.432981 0.367879 2.554301 18 14 9
-0.424696 0.366766 2.558282 4 5 3
-0.569472 0.360118 2.553316 0 0 1
-0.563943 0.359717 2.553139 1 1 3
-0.551235 0.356704 2.550631 0 1 1
-0.541932 0.355612 2.552413 2 2 2
-0.531602 0.358706 2.551647 84 83 56
-0.522715 0.358626 2.553148 139 137 96
-0.512760 0.358381 2.554331 161 162 107
-0.501830 0.358653 2.553210 146 154 80
-0.492102 0.358677 2.553866 128 137 68
-0.482065 0.358883 2.554490 89 97 50
-0.472461 0.360144 2.554302 42 46 25
-0.462275 0.358790 2.553550 48 55 26
-0.452112 0.358200 2.553283 56 64 32
-0.441557 0.356968 2.552393 42 45 25
-0.432027 0.357380 2.553041 20 19 12
-0.422764 0.356230 2.554102 19 18 13
-0.412833 0.356272 2.552630 3 3 2
-0.402412 0.356513 2.552962 2 3 2
-0.393477 0.355885 2.554357 2 4 3
-0.383773 0.354625 2.554003 7 9 5
-0.539562 0.350586 2.555720 0 0 2
-0.530344 0.350356 2.556749 5 5 4
-0.521344 0.351961 2.552258 14 14 11
-0.511358 0.349104 2.553735 20 22 12
-0.501972 0.349453 2.554958 74 81 43
-0.491453 0.348275 2.553850 68 72 36
-0.481763 0.347936 2.552905 85 90 47
-0.472094 0.347647 2.553429 107 119 59
-0.462307 0.347580 2.553057 122 140 64
-0.452107 0.348438 2.553091 119 138 62
-0.442050 0.348614 2.553607 119 136 66
-0.432002 0.348663 2.554412 101 112 57
-0.422331 0.348633 2.554554 71 74 39
-0.412676 0.347742 2.554230 47 48 26
-0.402715 0.347750 2.554384 38 42 23
-0.393088 0.348240 2.555043 24 28 16
-0.383786 0.348015 2.556246 31 36 20
-0.373941 0.347511 2.555715 49 58 32
-0.362951 0.345041 2.553751 91 112 61
-0.509888 0.343311 2.555641 0 0 1
-0.501621 0.341635 2.555628 1 2 1
-0.490665 0.341491 2.554018 9 9 7
-0.481685 0.340630 2.555126 24 23 14
-0.471892 0.340220 2.554451 50 51 28
-0.461906 0.339096 2.554240 81 85 46
-0.452143 0.339201 2.554147 109 123 62
-0.442310 0.338638 2.554517 114 133 63
-0.432315 0.338564 2.554543 126 145 67
-0.422382 0.339022 2.554435 129 147 68
-0.412626 0.339102 2.554917 113 127 59
-0.402713 0.339065 2.556068 86 96 46
-0.393161 0.339132 2.556520 64 73 36
-0.383730 0.339085 2.557688 57 66 34
-0.373403 0.338506 2.557122 76 91 43
-0.362987 0.340686 2.556264 82 101 48
-0.353270 0.339519 2.555413 93 115 54
-0.493509 0.332700 2.559268 0 1 1
-0.480939 0.331625 2.556665 0 0 0
-0.470699 0.331531 2.555594 4 4 3
-0.461590 0.331307 2.555906 19 18 12
-0.451509 0.330470 2.555344 51 47 26
-0.442089 0.329745 2.555108 85 90 50
-0.432193 0.329524 2.555108 108 120 64
-0.422381 0.329404 2.555421 121 136 66
-0.412663 0.329518 2.556245 118 136 60
-0.402826 0.329896 2.556584 109 127 55
-0.392985 0.329724 2.556807 78 90 44
-0.383481 0.328655 2.557367 39 46 24
-0.374386 0.328394 2.557639 1 2 2
-0.347851 0.332766 2.558619 87 110 48
-0.459801 0.323898 2.556078 1 2 3
-0.451317 0.322091 2.554538 19 18 15
-0.441231 0.320937 2.554606 29 24 14
-0.432270 0.319901 2.555528 61 62 34
-0.422475 0.320411 2.556418 86 96 48
-0.412329 0.320352 2.556123 105 122 56
-0.402850 0.320035 2.556964 101 118 50
-0.393545 0.319679 2.557370 85 99 44
-0.382305 0.320133 2.557209 27 32 17
-0.372741 0.320386 2.557326 6 8 6
-0.363014 0.317734 2.555004 6 7 6
-0.430826 0.310954 2.554365 13 11 5
-0.422590 0.310417 2.555423 54 55 29
-0.412590 0.310167 2.556380 99 113 58
-0.402256 0.310874 2.557257 123 143 62
-0.393733 0.310685 2.558740 81 97 41
-0.360418 0.309714 2.557101 0 0 0
-0.353049 0.309812 2.557852 0 0 0
-0.430358 0.299381 2.551374 0 0 0
-0.420627 0.301438 2.555565 17 16 11
-0.412386 0.300269 2.557746 44 50 28
-0.403165 0.299465 2.558536 108 125 62
-0.390127 0.300554 2.558183 119 142 62
-0.384531 0.297724 2.559882 111 135 59
-0.249112 0.295303 2.551565 37 44 20
-0.419511 0.292896 2.553594 21 22 23
-0.409859 0.292416 2.557668 32 37 23
-0.404894 0.285062 2.558048 1 1 5
-0.243430 0.288456 2.554338 71 85 38
-0.238338 0.281476 2.556428 105 128 56
-0.234942 0.277758 2.556550 109 137 50
-0.348037 0.264663 2.559472 100 125 53
-0.231491 0.272984 2.559044 106 137 45
-0.348496 0.259111 2.558532 98 124 48
-0.342588 0.258231 2.558966 99 123 50
-0.335883 0.256328 2.558504 99 118 60
-0.245873 0.254920 2.559683 0 0 0
-0.341123 0.252815 2.559425 95 123 45
-0.336250 0.250484 2.559118 96 121 52
-0.230926 0.244318 2.559712 0 1 0
-0.224406 0.238073 2.559011 0 0 0
-0.213731 0.230163 2.555675 0 0 1
-0.201629 0.220540 2.557661 2 1 1
-0.162693 0.218149 2.558553 84 109 44
-0.142419 0.219481 2.557618 2 2 2
-0.135545 0.215254 2.556094 0 0 3
-0.184168 0.206785 2.552981 0 1 1
-0.159195 0.212343 2.557754 87 113 43
-0.151563 0.207692 2.557604 83 109 44
-0.142107 0.206825 2.556652 76 95 45
-0.133228 0.207465 2.557116 14 17 9
-0.189190 0.201077 2.558958 0 0 0
-0.182746 0.197829 2.557902 0 0 0
-0.177310 0.194319 2.559005 6 8 3
-0.148994 0.200937 2.557117 62 80 33
-0.142123 0.199823 2.556146 81 105 43
-0.133095 0.198333 2.555816 66 82 39
-0.123269 0.198360 2.554419 18 22 13
-0.116128 0.194932 2.550004 6 7 4
-0.268374 0.187912 2.553890 78 98 46
-0.180018 0.191245 2.558191 0 0 1
-0.172337 0.188254 2.556316 4 4 3
-0.164307 0.186199 2.556165 22 25 16
-0.149263 0.191380 2.555157 1 1 3
-0.140789 0.188386 2.558834 66 87 34
-0.131975 0.188933 2.556289 68 87 38
-0.122693 0.187551 2.555582 48 59 30
-0.113570 0.188853 2.553272 8 11 6
-0.170022 0.181407 2.558419 2 3 2
-0.161970 0.178967 2.555329 11 13 9
-0.156364 0.176901 2.555723 34 39 24
-0.140924 0.179547 2.557971 78 98 38
-0.130772 0.179623 2.557333 75 99 41
-0.121806 0.178398 2.556375 66 83 39
-0.113283 0.177485 2.556065 31 37 22
-0.104009 0.176443 2.555208 4 5 4
-0.093184 0.175103 2.556634 1 1 1
-0.082969 0.174606 2.550411 0 0 1
-0.160344 0.171143 2.557793 0 1 1
-0.153103 0.167861 2.555219 7 9 6
-0.141225 0.168643 2.557794 81 104 45
-0.131033 0.169688 2.557579 90 116 49
-0.121436 0.169533 2.555369 86 111 48
-0.111890 0.169876 2.555257 71 88 44
-0.103323 0.168304 2.554299 43 51 29
-0.093890 0.167573 2.553837 36 43 26
-0.084220 0.167177 2.554270 56 65 39
-0.076193 0.164757 2.556694 105 127 69
-0.159018 0.159778 2.557718 98 125 54
-0.149875 0.160097 2.557407 34 43 20
-0.142284 0.158103 2.556813 46 59 28
-0.131879 0.158480 2.557274 89 115 47
-0.121542 0.159193 2.556577 87 115 43
-0.112633 0.159443 2.554564 89 116 47
-0.102445 0.159904 2.554523 82 104 49
-0.093640 0.159061 2.553658 65 82 40
-0.083592 0.158592 2.553931 87 110 53
-0.073321 0.158915 2.554774 98 126 59
-0.065202 0.156838 2.550222 102 128 70
-0.148783 0.152207 2.558011 51 65 29
-0.141111 0.149689 2.556742 55 70 31
-0.132191 0.148438 2.556053 79 100 45
-0.122218 0.148814 2.556386 90 119 46
-0.112560 0.149183 2.554348 87 116 43
-0.103570 0.150135 2.553878 91 120 48
-0.091984 0.151778 2.553108 76 98 44
-0.083886 0.151071 2.552841 77 101 45
-0.074358 0.152129 2.551512 94 124 55
-0.139168 0.139937 2.558300 30 37 18
-0.131077 0.139698 2.556622 49 61 30
-0.122622 0.138589 2.555469 85 107 49
-0.112907 0.139063 2.554460 90 118 47
-0.104048 0.138962 2.552718 90 118 47
-0.094370 0.138686 2.555380 96 121 55
-0.074327 0.141110 2.551627 1 0 1
-0.140013 0.129753 2.557242 8 9 7
-0.130437 0.130640 2.556364 18 21 13
-0.121408 0.130259 2.554929 43 52 28
-0.112933 0.129405 2.554248 72 92 40
-0.103962 0.128147 2.553587 63 82 35
-0.093371 0.128560 2.554036 35 43 23
-0.083564 0.126229 2.554356 10 11 8
-0.074705 0.125298 2.558598 0 0 3
-0.131590 0.123193 2.554003 2 2 3
-0.121873 0.121593 2.553202 5 6 5
-0.111788 0.122009 2.553026 48 61 27
-0.103667 0.121061 2.553488 36 47 19
-0.093883 0.120741 2.552788 12 16 8
-0.083866 0.116930 2.553465 1 0 1
-0.075768 0.121616 2.551489 0 0 2
-0.066650 0.122580 2.556081 1 0 1
-0.108418 0.112731 2.550491 1 1 1
-0.103136 0.113034 2.555403 0 1 1
-0.096143 0.114088 2.550961 1 0 0
-0.431417 0.364691 2.561971 54 32 16
-0.420262 0.365217 2.560176 1 1 2
-0.413651 0.367572 2.565964 0 0 0
-0.460205 0.357208 2.563763 20 22 13
-0.453835 0.355943 2.561237 10 11 7
-0.444192 0.355108 2.562137 4 5 4
-0.432129 0.357237 2.562641 5 2 3
-0.418879 0.359977 2.562520 30 28 23
-0.413147 0.357670 2.564358 28 28 23
-0.401971 0.355923 2.564553 0 1 1
-0.527915 0.344157 2.562002 0 0 5
-0.521670 0.349851 2.561390 74 74 48
-0.512337 0.349416 2.562507 115 116 74
-0.501030 0.347045 2.562437 109 114 66
-0.491077 0.347742 2.561990 131 143 72
-0.480883 0.347515 2.562891 130 146 68
-0.471636 0.348869 2.562467 104 120 54
-0.462191 0.349165 2.563142 108 123 59
-0.452368 0.348388 2.564947 82 92 46
-0.441802 0.348286 2.563755 68 78 40
-0.432182 0.348086 2.564301 59 67 34
-0.421450 0.347485 2.562592 45 49 27
-0.412308 0.347231 2.563712 33 31 18
-0.403356 0.346558 2.564474 29 26 15
-0.392322 0.346883 2.563415 9 9 6
-0.382460 0.346006 2.563646 2 2 2
-0.372751 0.345920 2.562990 8 9 6
-0.362882 0.345673 2.563542 4 5 3
-0.532692 0.342929 2.562977 1 1 1
-0.523339 0.341122 2.567992 2 3 4
-0.511246 0.341594 2.566791 24 24 16
-0.501889 0.339027 2.564965 11 12 7
-0.492251 0.339743 2.563558 36 40 23
-0.481943 0.338195 2.564133 52 57 32
-0.472261 0.338306 2.562798 75 77 44
-0.462192 0.338463 2.562984 101 113 59
-0.452201 0.337780 2.563196 113 130 64
-0.442280 0.337911 2.562759 124 144 68
-0.431770 0.337987 2.562478 122 140 66
-0.421789 0.338550 2.563416 121 138 66
-0.412184 0.338920 2.564705 104 118 59
-0.402462 0.338762 2.564714 77 83 43
-0.392559 0.337945 2.564500 49 51 27
-0.382622 0.338239 2.564501 37 41 23
-0.373148 0.338114 2.565354 23 27 15
-0.363371 0.337776 2.566322 24 29 17
-0.354417 0.336986 2.565999 33 41 24
-0.346348 0.335256 2.564862 62 74 43
-0.491135 0.332808 2.565896 0 0 0
-0.480615 0.331877 2.566048 1 2 2
-0.471321 0.330914 2.564911 8 8 6
-0.462019 0.329726 2.564510 27 27 15
-0.452042 0.329427 2.564421 68 67 38
-0.441977 0.328838 2.563850 93 98 56
-0.432123 0.328908 2.563980 128 140 75
-0.422255 0.328697 2.564181 126 142 69
-0.412262 0.328811 2.564936 124 145 66
-0.402223 0.328824 2.564443 119 140 62
-0.392362 0.329081 2.564821 107 123 57
-0.382821 0.329208 2.565995 80 91 44
-0.372854 0.329512 2.566810 59 69 35
-0.363222 0.329020 2.567754 47 57 29
-0.353059 0.329474 2.567845 50 64 32
-0.342245 0.330295 2.565246 66 83 42
-0.332770 0.327904 2.565969 70 84 42
-0.325271 0.326111 2.566372 54 64 33
-0.467680 0.322937 2.564604 0 0 0
-0.460705 0.321218 2.563445 0 0 1
-0.451320 0.320912 2.565376 2 2 2
-0.440957 0.321116 2.564632 21 18 10
-0.431660 0.320088 2.564807 48 46 27
-0.422151 0.319636 2.565054 90 97 52
-0.412279 0.319550 2.565136 107 121 61
-0.402388 0.319174 2.565134 114 132 62
-0.392511 0.319128 2.565756 113 134 58
-0.383161 0.319548 2.566534 107 127 56
-0.372947 0.319932 2.566996 76 90 43
-0.363717 0.318875 2.567100 32 38 20
-0.353750 0.320760 2.569063 17 22 12
-0.341860 0.320560 2.569033 53 69 31
-0.331773 0.321713 2.566322 82 105 42
-0.321873 0.320255 2.567451 83 102 45
-0.311884 0.315766 2.568596 83 105 43
-0.440942 0.313650 2.564590 0 0 1
-0.430771 0.311620 2.564563 13 9 6
-0.421389 0.310942 2.564409 29 25 13
-0.412199 0.309952 2.566078 58 60 32
-0.402324 0.310101 2.566082 95 109 54
-0.392409 0.310299 2.566132 101 120 54
-0.383008 0.309908 2.566969 88 107 46
-0.373201 0.309721 2.567018 82 99 45
-0.363110 0.309662 2.566555 44 52 27
-0.353787 0.308767 2.565742 8 9 6
-0.306018 0.312935 2.569496 83 106 41
-0.418102 0.301814 2.560491 9 9 12
-0.411121 0.301163 2.565562 11 9 5
-0.402570 0.300031 2.565884 47 47 25
-0.392930 0.300066 2.566533 85 98 48
-0.382576 0.300497 2.566447 107 132 56
-0.372327 0.300716 2.568561 73 91 36
-0.362467 0.301985 2.568299 31 36 22
-0.352930 0.301882 2.566879 10 12 8
-0.343007 0.300545 2.567728 3 3 3
-0.333362 0.297360 2.566803 3 4 4
-0.326414 0.295975 2.563499 0 0 1
-0.410593 0.293502 2.564690 1 2 2
-0.401665 0.291162 2.564694 10 12 8
-0.392853 0.289629 2.566500 42 48 26
-0.383735 0.288401 2.567906 91 106 57
-0.372735 0.288969 2.568533 105 130 54
-0.363005 0.289414 2.567057 99 123 55
-0.337701 0.292548 2.560667 0 0 0
-0.330259 0.291333 2.567951 1 1 1
-0.322445 0.288600 2.567770 0 1 2
-0.314606 0.288701 2.568696 0 0 1
-0.305974 0.284228 2.568860 0 0 1
-0.393557 0.283534 2.567871 0 0 0
-0.385158 0.282245 2.569376 25 28 17
-0.322936 0.281791 2.563015 0 0 2
-0.317170 0.283558 2.567969 1 1 3
-0.303019 0.283621 2.568360 0 0 2
-0.239405 0.282386 2.560279 54 66 34
-0.235603 0.277130 2.561871 84 106 49
-0.341610 0.264283 2.561152 101 123 54
-0.331351 0.267255 2.563699 50 61 32
-0.323701 0.269339 2.563598 1 1 1
-0.270368 0.266679 2.568251 1 1 2
-0.231765 0.269943 2.564122 100 127 50
-0.329932 0.257343 2.561700 97 114 61
-0.324368 0.261791 2.563127 34 40 25
-0.314545 0.257533 2.564246 10 12 8
-0.255756 0.261264 2.563700 2 3 4
-0.229204 0.262505 2.564367 105 135 43
-0.226485 0.263435 2.569628 103 130 50
-0.212138 0.255168 2.566456 83 110 43
-0.329255 0.249867 2.561952 96 122 50
-0.322375 0.248924 2.562168 92 111 53
-0.311394 0.248909 2.563937 61 72 36
-0.302288 0.247721 2.564296 23 27 17
-0.296007 0.244929 2.563678 1 2 3
-0.257509 0.253107 2.566897 0 0 1
-0.253566 0.249300 2.568781 0 0 0
-0.244140 0.246583 2.566453 1 1 0
-0.234524 0.246884 2.560930 1 2 1
-0.204079 0.245352 2.568527 77 104 43
-0.180154 0.245931 2.569674 0 0 0
-0.176909 0.245391 2.567345 1 1 1
-0.311502 0.241794 2.566279 93 119 46
-0.302518 0.238884 2.566173 94 118 51
-0.292127 0.239248 2.565960 51 63 32
-0.284923 0.237511 2.565331 27 33 18
-0.237567 0.237996 2.565732 1 0 5
-0.230203 0.238323 2.563786 0 0 0
-0.198162 0.239134 2.569740 79 106 43
-0.190938 0.237306 2.566797 79 104 44
-0.185388 0.235009 2.566147 83 108 42
-0.171982 0.240906 2.565834 1 3 3
-0.165604 0.237832 2.562368 4 6 6
-0.298603 0.232919 2.564079 94 119 48
-0.291741 0.232405 2.569267 92 119 46
-0.230711 0.230433 2.569029 0 0 0
-0.222053 0.228167 2.568271 7 9 5
-0.214024 0.225651 2.565387 5 6 5
-0.197475 0.227833 2.567651 82 108 43
-0.192410 0.229588 2.566994 82 108 43
-0.180799 0.228760 2.566345 82 107 44
-0.173516 0.226420 2.566143 72 92 41
-0.162621 0.228589 2.567309 6 7 4
-0.152313 0.228010 2.560790 1 0 2
-0.219922 0.222213 2.568260 0 0 1
-0.212090 0.219117 2.566501 2 1 1
-0.203058 0.219003 2.566556 46 55 31
-0.179965 0.217449 2.568096 78 104 42
-0.170618 0.219552 2.565465 83 108 44
-0.163036 0.218196 2.565643 68 86 39
-0.154152 0.217163 2.565510 32 38 21
-0.209517 0.212539 2.566544 0 0 1
-0.202778 0.208212 2.566018 1 1 1
-0.193975 0.207080 2.565556 24 28 17
-0.181774 0.208374 2.567202 89 113 49
-0.171573 0.209546 2.567414 71 93 37
-0.161963 0.209036 2.566458 73 94 40
-0.153079 0.208535 2.565212 75 92 45
-0.142353 0.207622 2.564257 20 24 15
-0.136890 0.205844 2.560543 9 12 7
-0.198851 0.201704 2.567503 0 0 1
-0.192061 0.199698 2.565612 7 8 5
-0.183854 0.197696 2.564600 26 30 18
-0.171470 0.199410 2.566195 85 108 45
-0.160758 0.199819 2.567799 75 100 40
-0.152044 0.198271 2.567065 68 86 38
-0.142737 0.197567 2.566573 44 54 29
-0.133724 0.196318 2.565365 15 18 11
-0.126962 0.194689 2.560202 5 7 7
-0.259168 0.189714 2.560064 82 103 49
-0.251900 0.190776 2.564950 71 91 41
-0.244909 0.193891 2.566141 101 131 54
-0.188968 0.191439 2.566808 16 21 8
-0.181979 0.188962 2.565501 5 6 4
-0.172297 0.188764 2.565612 63 78 36
-0.161701 0.189190 2.567124 89 114 48
-0.151775 0.189623 2.567313 79 102 43
-0.141888 0.189543 2.566433 71 89 41
-0.132530 0.188137 2.565816 47 57 31
-0.124155 0.186781 2.564950 14 17 10
-0.114357 0.186169 2.566229 6 7 5
-0.100380 0.186697 2.568526 0 1 1
-0.093966 0.187984 2.568144 1 1 1
-0.220972 0.179383 2.565721 105 132 58
-0.213903 0.176790 2.565288 107 131 58
-0.181449 0.181783 2.567995 32 42 17
-0.172104 0.179067 2.566578 24 30 16
-0.163416 0.177405 2.566586 67 83 38
-0.151288 0.179267 2.567120 92 119 48
-0.141602 0.179196 2.566594 88 115 47
-0.132126 0.179491 2.565109 82 104 48
-0.122482 0.179598 2.564665 55 67 37
-0.114233 0.177659 2.563831 35 42 24
-0.103176 0.178041 2.564685 39 46 30
-0.095237 0.177830 2.565388 52 62 36
-0.208922 0.171922 2.561380 107 132 60
-0.170928 0.170116 2.568063 47 60 24
-0.161966 0.169349 2.566533 54 68 31
-0.152536 0.168202 2.566791 86 110 46
-0.141934 0.168877 2.567337 90 118 45
-0.132660 0.169008 2.565763 88 116 44
-0.122456 0.169775 2.564430 85 108 47
-0.112647 0.169787 2.563964 68 86 41
-0.103746 0.168772 2.563172 70 86 44
-0.093675 0.168817 2.563115 84 103 55
-0.082234 0.168699 2.565552 100 127 62
-0.075672 0.166830 2.563179 100 127 63
-0.171279 0.160212 2.567557 68 84 45
-0.160383 0.160269 2.567030 50 64 28
-0.151887 0.159306 2.566442 72 91 40
-0.142261 0.158928 2.566462 92 119 48
-0.132706 0.158795 2.564909 89 118 44
-0.123485 0.159480 2.563531 87 115 42
-0.112272 0.159740 2.563098 85 110 47
-0.102961 0.160413 2.563093 68 88 39
-0.093897 0.161258 2.562300 86 112 50
-0.082986 0.161276 2.563289 97 127 56
-0.073706 0.162632 2.561464 97 127 59
-0.173087 0.152513 2.567046 53 57 55
-0.160369 0.148802 2.568898 16 14 7
-0.150502 0.150305 2.566982 33 40 20
-0.141849 0.149170 2.565991 68 84 40
-0.132776 0.148853 2.564752 91 117 49
-0.123639 0.148955 2.563986 90 118 45
-0.113172 0.149560 2.563871 79 103 43
-0.104237 0.149481 2.565077 89 115 48
-0.092179 0.152150 2.561193 1 2 2
-0.158177 0.141423 2.568508 14 16 10
-0.150720 0.141213 2.566620 8 9 6
-0.141054 0.140470 2.565614 24 29 16
-0.132186 0.139861 2.564434 60 74 36
-0.123195 0.138990 2.564042 77 99 41
-0.114644 0.138133 2.563805 64 83 36
-0.102830 0.138593 2.564437 49 61 31
-0.095613 0.136104 2.563101 45 54 29
-0.141064 0.131891 2.564638 1 1 1
-0.131374 0.131990 2.563489 24 29 16
-0.122315 0.131142 2.563447 56 71 30
-0.113372 0.130336 2.562693 44 58 24
-0.102894 0.130607 2.563832 3 4 3
-0.093289 0.130682 2.562197 7 9 6
-0.134982 0.122730 2.562632 0 0 1
-0.111934 0.122256 2.563097 42 54 25
-0.105087 0.119535 2.563135 21 27 16
-0.094642 0.123497 2.562401 0 1 0
-0.087218 0.122052 2.565110 0 1 1
-0.405046 0.366288 2.571798 1 1 2
-0.452151 0.355395 2.570104 2 1 1
-0.401167 0.358557 2.572444 0 1 2
-0.392377 0.355516 2.576367 0 0 1
-0.443621 0.350052 2.571573 19 21 14
-0.431295 0.346361 2.573195 4 6 4
-0.424717 0.347138 2.572170 0 1 2
-0.411933 0.345675 2.571295 0 1 1
-0.401018 0.348764 2.571743 50 42 25
-0.392829 0.348959 2.574645 23 23 19
-0.383729 0.346840 2.577460 1 1 1
-0.529107 0.335786 2.571411 0 0 3
-0.520893 0.335729 2.573299 1 1 3
-0.515572 0.336309 2.571828 1 2 1
-0.504769 0.336104 2.573474 18 18 12
-0.493844 0.337755 2.571776 68 73 46
-0.482378 0.337712 2.572008 119 130 74
-0.473497 0.336645 2.572012 118 134 66
-0.461500 0.336409 2.572678 124 142 65
-0.452350 0.337540 2.572989 124 142 64
-0.442048 0.338853 2.572865 115 132 65
-0.432373 0.339421 2.573530 89 103 54
-0.422176 0.339619 2.575830 45 52 29
-0.411767 0.339259 2.574134 34 39 22
-0.402051 0.338208 2.572639 43 48 26
-0.392356 0.337593 2.573288 27 28 16
-0.382877 0.337356 2.574402 26 23 12
-0.372755 0.336654 2.573797 4 5 4
-0.362595 0.337102 2.572314 1 2 2
-0.353523 0.337119 2.572181 1 1 1
-0.526442 0.333049 2.576495 1 2 1
-0.500516 0.331994 2.574769 1 2 1
-0.493320 0.331411 2.576015 14 16 10
-0.484444 0.330334 2.573510 20 22 14
-0.472091 0.329226 2.573045 42 46 25
-0.462071 0.328579 2.574407 73 84 42
-0.451951 0.328179 2.573695 96 108 59
-0.442623 0.327644 2.573274 124 136 73
-0.432232 0.327525 2.572598 111 122 63
-0.422279 0.328039 2.572667 126 145 68
-0.411601 0.328370 2.572341 110 129 59
-0.401568 0.328735 2.573370 115 135 64
-0.392302 0.328997 2.574538 101 116 58
-0.382232 0.328734 2.574700 75 81 41
-0.372556 0.328182 2.574354 49 51 27
-0.362858 0.327890 2.574284 40 46 26
-0.353149 0.327623 2.574607 19 23 14
-0.343837 0.327400 2.574846 10 13 8
-0.333555 0.326094 2.573528 10 11 7
-0.468683 0.321193 2.578637 1 1 3
-0.460836 0.320832 2.575976 6 8 5
-0.452247 0.319827 2.574011 8 8 5
-0.441522 0.319931 2.573983 45 43 28
-0.431977 0.318921 2.574257 75 77 44
-0.422004 0.318264 2.573479 95 103 56
-0.412207 0.318297 2.573588 117 132 68
-0.402077 0.318749 2.573989 119 138 63
-0.392264 0.318922 2.574831 115 137 60
-0.382299 0.318966 2.574489 113 136 61
-0.372434 0.319059 2.574900 103 121 58
-0.362409 0.319179 2.575744 73 85 42
-0.352923 0.319332 2.576293 55 64 33
-0.343266 0.318672 2.577016 42 52 27
-0.333259 0.318232 2.576435 40 49 25
-0.322760 0.318285 2.575684 31 37 18
-0.313264 0.316218 2.575669 43 52 27
-0.450006 0.312754 2.576213 1 1 2
-0.441253 0.311518 2.574841 0 0 1
-0.431545 0.310846 2.574558 10 8 6
-0.421572 0.311472 2.574581 32 28 16
-0.411724 0.309940 2.574677 51 51 28
-0.402164 0.309574 2.574988 91 102 54
-0.392361 0.309692 2.574869 100 117 57
-0.382377 0.309021 2.574691 106 128 58
-0.372617 0.309159 2.575850 107 131 56
-0.362713 0.309547 2.576591 102 125 54
-0.352904 0.309545 2.576725 82 98 45
-0.342878 0.310003 2.577488 58 68 32
-0.332719 0.309107 2.577847 51 60 27
-0.323419 0.308944 2.577618 74 95 39
-0.312887 0.310329 2.577232 60 75 31
-0.302731 0.309996 2.574097 80 98 44
-0.293045 0.307294 2.573545 75 93 42
-0.421733 0.302084 2.573629 0 0 1
-0.411409 0.302059 2.574944 15 11 5
-0.401764 0.301087 2.574954 22 22 12
-0.392170 0.299955 2.575575 58 62 33
-0.382234 0.299708 2.576146 80 93 48
-0.372384 0.299982 2.576351 94 114 53
-0.362849 0.299416 2.576686 91 114 47
-0.352905 0.299328 2.576776 91 114 47
-0.342954 0.299322 2.577099 78 94 45
-0.332814 0.299869 2.577026 49 53 28
-0.322919 0.299310 2.577324 6 7 5
-0.313661 0.300157 2.578510 49 63 25
-0.302040 0.301188 2.578934 79 101 37
-0.291688 0.301641 2.576052 79 101 39
-0.283187 0.300790 2.575523 76 93 42
-0.275335 0.296386 2.576226 79 96 46
-0.399027 0.292852 2.576292 0 0 0
-0.391039 0.291109 2.574491 17 14 8
-0.382211 0.290282 2.576238 43 41 22
-0.372122 0.290533 2.576655 88 100 50
-0.362644 0.290268 2.576646 83 101 44
-0.353223 0.289998 2.577264 79 101 39
-0.343738 0.290229 2.577676 68 85 37
-0.333759 0.290374 2.576036 51 62 32
-0.321746 0.288787 2.576161 18 22 13
-0.313202 0.287320 2.575668 11 12 8
-0.306781 0.286009 2.578345 2 3 4
-0.279168 0.292353 2.577623 77 99 39
-0.271613 0.290658 2.577727 75 97 42
-0.266021 0.285938 2.579723 77 99 43
-0.389772 0.281664 2.570289 1 1 1
-0.381203 0.280962 2.573981 11 12 8
-0.372268 0.279672 2.576150 46 44 24
-0.361409 0.279856 2.576065 92 109 51
-0.352692 0.279719 2.576267 95 120 45
-0.343357 0.278584 2.577706 92 119 42
-0.332654 0.278657 2.578340 37 48 16
-0.320528 0.280260 2.577779 2 3 2
-0.311874 0.281315 2.576499 7 8 5
-0.302246 0.279620 2.575984 5 6 4
-0.292814 0.276838 2.579974 3 4 3
-0.261378 0.282465 2.578346 72 96 40
-0.256542 0.278500 2.577896 73 97 41
-0.228835 0.275969 2.572239 14 19 10
-0.378664 0.272967 2.573961 1 1 1
-0.371014 0.272191 2.576054 4 4 4
-0.362688 0.270529 2.577950 43 52 30
-0.352631 0.270556 2.575641 99 126 51
-0.343742 0.269741 2.578204 101 127 48
-0.334865 0.268319 2.576975 89 117 36
-0.317545 0.264628 2.576338 96 121 48
-0.311608 0.268800 2.571550 4 5 3
-0.305728 0.271656 2.575162 0 1 1
-0.290993 0.269325 2.575488 0 1 1
-0.283530 0.266061 2.575393 1 2 2
-0.273194 0.267659 2.570192 3 4 6
-0.261346 0.273650 2.579147 84 111 44
-0.251917 0.269710 2.578808 81 108 42
-0.241195 0.269251 2.574498 75 99 40
-0.224408 0.268740 2.574315 46 57 30
-0.365077 0.260050 2.579619 1 0 1
-0.335258 0.263785 2.575679 87 115 33
-0.314011 0.262272 2.576521 93 118 48
-0.303441 0.255189 2.577048 90 115 54
-0.281098 0.261748 2.577869 2 2 2
-0.272384 0.257530 2.576218 3 4 3
-0.262528 0.257872 2.576353 30 36 21
-0.255573 0.254592 2.574975 27 33 19
-0.232207 0.260720 2.577766 78 103 42
-0.222925 0.257976 2.576056 79 103 43
-0.214186 0.256769 2.576703 52 66 31
-0.262124 0.250285 2.576248 1 1 1
-0.253048 0.247881 2.573927 6 7 5
-0.243311 0.246460 2.574276 30 35 22
-0.220292 0.250110 2.577728 87 113 44
-0.211962 0.249632 2.575617 81 104 45
-0.202823 0.249506 2.576252 28 38 17
-0.192424 0.248567 2.575549 0 0 0
-0.185413 0.244921 2.575055 0 0 1
-0.249927 0.241286 2.575439 1 2 2
-0.242256 0.237946 2.575270 6 7 5
-0.234010 0.237325 2.574519 22 26 15
-0.219025 0.242243 2.579200 53 71 28
-0.211474 0.238577 2.578394 82 108 43
-0.202221 0.239483 2.577025 82 105 46
-0.192794 0.237787 2.575888 63 78 38
-0.183851 0.237035 2.574681 28 33 19
-0.177346 0.234256 2.570102 37 46 27
-0.241158 0.231199 2.576998 1 0 2
-0.232379 0.228424 2.574942 5 6 5
-0.222286 0.227745 2.575278 46 57 27
-0.212353 0.229853 2.578569 71 89 37
-0.201626 0.229606 2.578294 77 102 40
-0.192306 0.228140 2.576272 77 99 42
-0.182878 0.228252 2.575194 69 87 42
-0.173138 0.227755 2.573620 33 40 23
-0.164508 0.226013 2.573297 2 2 2
-0.229611 0.220531 2.575533 0 0 0
-0.222222 0.219703 2.575401 9 10 7
-0.213989 0.217689 2.575943 40 48 27
-0.202328 0.219011 2.576864 82 106 43
-0.191156 0.219931 2.577895 68 90 36
-0.182215 0.218258 2.576754 63 82 35
-0.172538 0.217327 2.576507 52 64 32
-0.164028 0.217093 2.575736 20 25 14
-0.155583 0.216368 2.571842 0 0 0
-0.227420 0.208479 2.578057 94 122 46
-0.218218 0.209543 2.578086 3 3 2
-0.211224 0.209723 2.575843 16 20 12
-0.203150 0.207769 2.576144 56 68 36
-0.192038 0.208871 2.576715 88 112 49
-0.181088 0.210000 2.576680 76 98 41
-0.172001 0.209109 2.576270 67 86 38
-0.162596 0.207875 2.576502 46 56 30
-0.153712 0.207088 2.575375 17 21 12
-0.144259 0.205521 2.575704 3 4 3
-0.229455 0.195833 2.577696 97 125 52
-0.211078 0.201847 2.578180 50 64 25
-0.201315 0.199981 2.576725 34 42 22
-0.193156 0.197673 2.576169 64 78 38
-0.181645 0.199258 2.577342 91 117 46
-0.171737 0.199190 2.576945 87 112 46
-0.162246 0.199235 2.575676 79 99 46
-0.152370 0.199242 2.575375 55 66 36
-0.143418 0.197437 2.574857 28 33 20
-0.134226 0.196772 2.574825 10 12 8
-0.124058 0.195968 2.576012 5 6 5
-0.113863 0.195429 2.576713 2 2 2
-0.248039 0.191164 2.570997 33 41 20
-0.241392 0.191813 2.575469 45 56 27
-0.235740 0.190855 2.578460 66 50 28
-0.199885 0.190861 2.578589 30 37 15
-0.191277 0.189735 2.576635 43 54 25
-0.182036 0.188424 2.576517 80 101 44
-0.171970 0.189064 2.577269 92 120 47
-0.162253 0.189266 2.576309 91 118 48
-0.152194 0.189058 2.575182 87 111 49
-0.142154 0.189673 2.574737 67 82 42
-0.133246 0.188622 2.573779 44 53 29
-0.123583 0.188178 2.573749 35 41 25
-0.111817 0.189100 2.574724 30 35 25
-0.103190 0.188402 2.575371 42 49 34
-0.091089 0.189543 2.575758 28 31 31
-0.085441 0.191526 2.576977 14 15 17
-0.222090 0.182794 2.573639 102 124 67
-0.215921 0.177536 2.572289 94 111 61
-0.190406 0.180022 2.577776 31 40 16
-0.181432 0.179365 2.576517 61 78 33
-0.172233 0.178738 2.576364 89 113 47
-0.162278 0.178505 2.576239 91 119 46
-0.152366 0.178996 2.574672 89 118 45
-0.142815 0.179166 2.574008 89 116 48
-0.132352 0.179774 2.574009 73 93 43
-0.123077 0.178891 2.573412 71 90 43
-0.113599 0.178421 2.573037 81 99 55
-0.103396 0.179816 2.574270 85 105 59
-0.092362 0.177808 2.575858 99 124 59
-0.086548 0.174647 2.574460 99 127 58
-0.208283 0.173960 2.579869 1 2 1
-0.201297 0.170534 2.579533 2 3 4
-0.191612 0.168155 2.577712 42 48 20
-0.180482 0.170704 2.577223 36 44 21
-0.171595 0.169330 2.576596 63 78 36
-0.161967 0.169202 2.575598 91 116 49
-0.152439 0.169110 2.574559 92 120 46
-0.143105 0.169031 2.573200 87 115 43
-0.133356 0.169421 2.573258 87 113 46
-0.122577 0.170917 2.573053 66 85 36
-0.113297 0.170394 2.572347 83 107 47
-0.102888 0.170899 2.571859 93 119 55
-0.091459 0.170295 2.573160 97 125 55
-0.084133 0.170912 2.571452 98 127 58
-0.187558 0.161011 2.577647 0 0 0
-0.180579 0.160814 2.577206 17 17 10
-0.171134 0.160002 2.577195 24 27 14
-0.161688 0.159703 2.575844 57 70 34
-0.152558 0.159128 2.574533 84 106 46
-0.143113 0.159184 2.573801 90 117 45
-0.133144 0.158764 2.573314 89 116 46
-0.123772 0.159020 2.573179 82 106 45
-0.112493 0.159876 2.573460 59 78 32
-0.103974 0.158878 2.574577 77 101 41
-0.181247 0.153920 2.579119 0 1 2
-0.170903 0.151963 2.576117 7 6 3
-0.161207 0.150972 2.575464 11 13 8
-0.151899 0.150232 2.574497 42 52 26
-0.142746 0.149517 2.574080 68 86 37
-0.133243 0.148955 2.573402 76 98 39
-0.123219 0.148575 2.574450 61 76 37
-0.113544 0.148210 2.574684 35 42 23
-0.105932 0.148133 2.573224 64 80 39
-0.162235 0.142993 2.575044 0 0 1
-0.151274 0.141588 2.573232 5 6 4
-0.141663 0.141940 2.573814 52 66 29
-0.132640 0.140283 2.573070 55 72 27
-0.123318 0.139819 2.572864 26 35 15
-0.112441 0.139294 2.573287 13 15 9
-0.103036 0.139530 2.573534 9 10 7
-0.094662 0.135492 2.571132 5 5 4
-0.147122 0.130870 2.572712 1 1 2
-0.131829 0.133480 2.571278 93 116 47
-0.123799 0.131431 2.573395 43 56 23
-0.113235 0.127439 2.574132 13 16 9
-0.105372 0.130329 2.570779 1 0 1
-0.095081 0.134079 2.574137 1 0 4
-0.121435 0.123491 2.576530 80 101 45
-0.112283 0.122421 2.570933 44 56 28
-0.426713 0.344652 2.581351 0 0 4
-0.380901 0.344917 2.581233 0 1 2
-0.422976 0.342168 2.584170 0 1 2
-0.411244 0.337029 2.582717 11 13 9
-0.403603 0.336394 2.582092 4 5 4
-0.393715 0.335692 2.582670 2 2 2
-0.380323 0.336717 2.581934 58 34 13
-0.371494 0.336826 2.583353 10 7 4
-0.363924 0.337323 2.588313 1 0 1
-0.495262 0.326823 2.581263 2 2 3
-0.481015 0.327245 2.581627 42 45 28
-0.473402 0.326835 2.581911 71 78 48
-0.463903 0.326342 2.582056 109 120 72
-0.453935 0.326179 2.583130 122 139 70
-0.442307 0.327009 2.583268 122 142 67
-0.432641 0.328017 2.582683 132 150 73
-0.422536 0.329117 2.582557 126 141 75
-0.411708 0.328735 2.583927 102 116 62
-0.402603 0.330694 2.585053 35 41 23
-0.391639 0.328636 2.582995 55 64 34
-0.382023 0.327858 2.583005 42 47 27
-0.372502 0.327137 2.583548 19 20 11
-0.363073 0.326788 2.583869 14 14 8
-0.354169 0.325602 2.583523 2 2 2
-0.342255 0.325918 2.581837 0 0 1
-0.336063 0.324801 2.584291 0 0 1
-0.473119 0.321331 2.586942 34 37 23
-0.462743 0.318309 2.585134 27 31 20
-0.452428 0.317975 2.583798 53 60 36
-0.441767 0.317510 2.583875 90 95 54
-0.432920 0.318487 2.584334 105 117 57
-0.422304 0.317857 2.583677 129 145 71
-0.411764 0.317445 2.582857 112 129 62
-0.401493 0.316944 2.581238 113 133 60
-0.391739 0.318693 2.582422 106 128 57
-0.381579 0.318935 2.582805 108 128 61
-0.372287 0.318982 2.584256 97 113 58
-0.362503 0.318666 2.584917 66 72 39
-0.352621 0.318095 2.584254 41 45 25
-0.342863 0.317322 2.583552 28 33 19
-0.333099 0.316811 2.583543 11 14 8
-0.323674 0.315900 2.584641 8 9 6
-0.312923 0.315436 2.583871 2 1 2
-0.460239 0.312405 2.589964 7 7 5
-0.451661 0.312020 2.585326 4 5 3
-0.442750 0.309358 2.585163 1 1 2
-0.432325 0.310054 2.583940 17 18 10
-0.422150 0.308966 2.584085 44 43 24
-0.411860 0.308490 2.583769 75 79 43
-0.401852 0.308105 2.583460 102 116 61
-0.391866 0.308209 2.583185 109 128 62
-0.382126 0.308725 2.583607 107 130 58
-0.372189 0.308929 2.584455 109 134 59
-0.362270 0.308783 2.584599 108 132 59
-0.352319 0.308839 2.584331 94 113 53
-0.342592 0.308668 2.584809 67 79 38
-0.332747 0.308630 2.585185 47 56 28
-0.323008 0.307948 2.585662 33 40 22
-0.313371 0.307493 2.586236 16 19 11
-0.303445 0.306849 2.584654 14 16 10
-0.292331 0.305731 2.583613 6 7 5
-0.439273 0.304075 2.589310 0 0 1
-0.429904 0.303353 2.583651 0 0 1
-0.421716 0.302014 2.587015 0 0 1
-0.411227 0.300757 2.584774 6 6 4
-0.401601 0.300228 2.585486 33 31 17
-0.391962 0.299286 2.584797 55 59 32
-0.382162 0.299074 2.584822 86 99 52
-0.372220 0.299274 2.584797 100 120 57
-0.362346 0.299072 2.584646 104 128 56
-0.352283 0.299052 2.584856 98 124 50
-0.342271 0.299424 2.585697 96 121 50
-0.332497 0.299311 2.586452 83 101 45
-0.322613 0.299421 2.586860 61 73 34
-0.312783 0.299528 2.587088 49 61 30
-0.303561 0.298319 2.587303 36 44 23
-0.293038 0.298014 2.586586 30 36 20
-0.283495 0.296485 2.587379 12 15 9
-0.273968 0.297070 2.584945 1 1 2
-0.401429 0.291095 2.585953 0 0 1
-0.390658 0.291365 2.585493 1 1 2
-0.381404 0.290728 2.585123 18 19 11
-0.372219 0.289642 2.585170 55 62 35
-0.362279 0.289728 2.585525 81 96 49
-0.352513 0.289471 2.585716 90 111 50
-0.342785 0.289382 2.586250 93 117 47
-0.332560 0.289667 2.587096 93 118 46
-0.322449 0.290105 2.587092 91 113 48
-0.312540 0.289751 2.587480 72 88 42
-0.302431 0.290036 2.587526 60 75 32
-0.293337 0.288535 2.587671 57 72 30
-0.282553 0.288927 2.587504 53 66 31
-0.273031 0.288821 2.587583 28 34 19
-0.265719 0.287889 2.584702 35 42 22
-0.254869 0.285116 2.585934 0 0 0
-0.378955 0.282639 2.585689 9 6 4
-0.370784 0.281698 2.586169 11 9 6
-0.362055 0.280404 2.586598 36 40 22
-0.352378 0.280129 2.586577 69 82 39
-0.342456 0.280541 2.586809 73 91 39
-0.332553 0.279506 2.586584 76 98 37
-0.322842 0.279876 2.587477 83 107 40
-0.313069 0.279417 2.587467 83 105 42
-0.302437 0.279731 2.587792 79 97 48
-0.291334 0.279810 2.587995 66 79 40
-0.282602 0.279859 2.587958 61 77 32
-0.273121 0.278446 2.587970 65 84 37
-0.262200 0.279165 2.586090 63 79 37
-0.253694 0.277143 2.586727 54 67 35
-0.244133 0.276352 2.586832 1 1 2
-0.361085 0.271491 2.583822 7 7 4
-0.352281 0.270204 2.586031 40 35 18
-0.342494 0.271729 2.587475 77 91 41
-0.332356 0.270184 2.587013 88 110 43
-0.322843 0.270500 2.587163 70 91 31
-0.312004 0.269446 2.587868 58 75 27
-0.301559 0.271196 2.586565 56 71 30
-0.292004 0.268075 2.586184 51 63 33
-0.282229 0.269331 2.586488 72 88 46
-0.271802 0.269572 2.587872 56 66 30
-0.262059 0.269161 2.587778 62 81 33
-0.253326 0.267629 2.586884 74 96 40
-0.242447 0.268345 2.586599 45 56 29
-0.234440 0.266735 2.586894 32 38 21
-0.219662 0.267244 2.582090 2 3 3
-0.359331 0.262199 2.582165 1 2 2
-0.351239 0.261488 2.584201 7 8 6
-0.342642 0.260001 2.584906 45 54 27
-0.333672 0.257922 2.584850 86 104 47
-0.322704 0.260822 2.586895 99 121 45
-0.313227 0.258720 2.585981 84 108 38
-0.302707 0.259483 2.586814 71 94 34
-0.291479 0.259518 2.586919 41 52 22
-0.282821 0.259762 2.586867 52 64 33
-0.273430 0.259424 2.586367 59 73 34
-0.261706 0.259791 2.587555 57 72 29
-0.251529 0.259099 2.588367 60 78 31
-0.242351 0.257959 2.587608 65 84 36
-0.232631 0.258177 2.586997 55 67 33
-0.223130 0.257480 2.586163 33 41 22
-0.215090 0.257211 2.584642 11 14 8
-0.206351 0.255225 2.580195 0 0 1
-0.353582 0.251173 2.581822 0 0 1
-0.340690 0.251399 2.586363 1 0 0
-0.331834 0.250463 2.586791 30 35 19
-0.322688 0.248417 2.587406 66 82 38
-0.312717 0.249218 2.587100 94 119 47
-0.304028 0.250401 2.588046 97 123 44
-0.290652 0.249553 2.588986 71 93 31
-0.280874 0.250581 2.587871 9 12 5
-0.271106 0.250703 2.586518 32 39 20
-0.262657 0.248605 2.586070 46 56 29
-0.251043 0.249571 2.586431 59 73 35
-0.241851 0.250811 2.587529 58 77 30
-0.232043 0.249058 2.587214 63 81 34
-0.222896 0.247629 2.586820 59 74 35
-0.213229 0.248425 2.586272 33 41 22
-0.204347 0.246243 2.583879 21 25 14
-0.331351 0.243392 2.586539 1 2 2
-0.320911 0.240816 2.588889 6 6 4
-0.312186 0.240382 2.588888 56 66 34
-0.295040 0.236273 2.589832 109 67 27
-0.270435 0.241440 2.589082 1 1 1
-0.261555 0.240581 2.587362 17 21 11
-0.251862 0.239214 2.585695 40 48 26
-0.242002 0.239507 2.586520 77 97 42
-0.231685 0.239856 2.587579 70 91 39
-0.221585 0.239444 2.587406 67 88 37
-0.212434 0.238460 2.586552 59 75 35
-0.203025 0.237333 2.586500 35 43 23
-0.193479 0.236531 2.585456 16 19 12
-0.185329 0.234573 2.583853 1 1 1
-0.319949 0.231611 2.584455 0 1 0
-0.310285 0.228633 2.586842 4 4 4
-0.302778 0.231112 2.588917 25 28 17
-0.294908 0.232959 2.585995 95 52 18
-0.268408 0.233866 2.589437 98 129 43
-0.260792 0.231467 2.588914 33 43 15
-0.251778 0.229184 2.588383 48 63 25
-0.242007 0.229051 2.586637 50 62 30
-0.232976 0.228581 2.585732 77 95 46
-0.222106 0.229041 2.587038 87 111 48
-0.211680 0.229650 2.586947 76 98 42
-0.201951 0.229564 2.586184 64 80 39
-0.192847 0.228067 2.586135 44 53 29
-0.183967 0.226661 2.585548 15 18 12
-0.175266 0.226291 2.585103 4 5 4
-0.303929 0.223569 2.586630 2 3 4
-0.275405 0.214947 2.589129 0 0 1
-0.250824 0.222430 2.586810 68 89 34
-0.241437 0.220106 2.587816 45 59 23
-0.231745 0.219313 2.587028 57 71 33
-0.222770 0.218196 2.586487 81 102 46
