ply
format ascii 1.0
element vertex 1332
property float x
property float y
property float z
property uchar red
property uchar green
property uchar blue
end_header
0.526509 -0.027959 3.055207 80 111 42
0.522245 0.045802 3.062761 36 46 22
0.526439 0.046370 3.065384 30 40 20
0.533367 0.044170 3.067640 1 1 1
0.520596 0.042141 3.061670 90 115 52
0.529564 0.037415 3.063415 33 44 19
0.537244 0.036816 3.065420 19 24 14
0.546640 0.036389 3.066070 21 27 15
0.556553 0.036248 3.064883 2 3 2
0.566617 0.038031 3.067016 1 1 1
0.521978 0.026483 3.062778 87 122 53
0.529868 0.028539 3.062767 40 53 24
0.538188 0.028962 3.064562 62 80 40
0.546136 0.029211 3.066103 73 96 45
0.555663 0.029819 3.067134 42 58 24
0.567058 0.032730 3.065296 0 0 2
0.520250 0.019853 3.060267 0 1 3
0.528238 0.021063 3.064011 26 35 16
0.538727 0.021048 3.063867 80 108 43
0.547821 0.019075 3.065068 91 123 48
0.556264 0.017528 3.066586 88 120 44
0.566073 0.016517 3.065551 75 104 36
0.575622 0.015753 3.065234 54 75 26
0.520703 0.012490 3.063701 1 1 2
0.531107 0.012816 3.064230 13 18 10
0.539975 0.010584 3.062754 66 88 38
0.548646 0.009672 3.064224 94 126 50
0.555898 0.009164 3.066461 93 126 48
0.566884 0.006908 3.065645 66 90 33
0.575039 0.009831 3.066649 18 25 10
0.538505 0.000294 3.063228 44 56 26
0.549188 -0.000425 3.063912 72 97 38
0.557815 -0.001349 3.064871 79 103 46
0.566136 -0.001115 3.066073 63 84 36
0.575862 -0.000341 3.066362 44 58 29
0.588753 -0.003377 3.065434 90 122 43
0.594975 -0.002812 3.066476 91 125 45
0.539863 -0.010870 3.062952 84 110 42
0.548816 -0.009794 3.063857 76 100 41
0.557609 -0.009329 3.064522 39 50 25
0.565424 -0.008469 3.065542 11 15 8
0.576673 -0.006858 3.065195 26 33 16
0.586192 -0.006166 3.063041 23 30 10
0.621071 -0.006082 3.069626 108 141 40
0.531062 -0.024416 3.061923 75 107 36
0.538111 -0.019919 3.064066 88 119 45
0.546514 -0.017784 3.065924 79 107 44
0.556221 -0.019122 3.063299 2 2 1
0.564838 -0.016668 3.064738 2 1 1
0.529597 -0.027310 3.062402 80 113 42
0.533201 -0.026196 3.066777 83 116 45
0.529687 0.047368 3.073738 51 65 34
0.537212 0.048192 3.075068 6 9 6
0.545439 0.045088 3.075753 2 2 2
0.555092 0.044471 3.076427 2 3 3
0.531212 0.041423 3.074841 92 124 47
0.540003 0.037540 3.073591 29 37 20
0.547563 0.037017 3.075709 30 38 22
0.556504 0.036960 3.076394 32 41 21
0.566018 0.037997 3.076964 7 10 5
0.575013 0.037098 3.077708 1 1 2
0.584085 0.043009 3.077905 2 1 3
0.530260 0.029268 3.073283 75 101 48
0.539803 0.029076 3.073495 42 55 25
0.547690 0.029702 3.074830 76 99 47
0.555956 0.028911 3.076235 87 116 49
0.564708 0.030278 3.077453 54 74 30
0.573966 0.030203 3.076346 33 46 17
0.583843 0.033873 3.072246 0 0 2
0.530236 0.019181 3.074298 0 1 1
0.537283 0.021920 3.073996 29 38 19
0.549202 0.019950 3.073227 87 118 46
0.557424 0.018765 3.075002 94 127 49
0.566447 0.018490 3.076495 92 125 45
0.576503 0.019629 3.077008 81 112 40
0.585626 0.018156 3.075942 28 39 17
0.540091 0.011581 3.073103 5 9 3
0.550073 0.010527 3.073050 70 91 42
0.558062 0.009586 3.074593 93 124 50
0.566882 0.008537 3.076158 91 122 47
0.575995 0.007327 3.076514 64 87 32
0.585901 0.006721 3.077202 60 81 34
0.593356 0.008919 3.077665 0 0 0
0.550465 -0.000334 3.073512 58 78 31
0.558822 -0.000571 3.074290 68 92 37
0.567830 -0.001093 3.074854 67 87 41
0.575880 -0.000347 3.076228 52 68 30
0.585994 -0.000077 3.076833 38 50 23
0.597919 -0.001544 3.074239 72 97 35
0.608024 -0.000688 3.076824 92 126 41
0.615055 -0.002246 3.076152 99 133 41
0.540440 -0.011842 3.070587 54 69 32
0.549326 -0.010461 3.073432 82 108 43
0.558359 -0.009101 3.073974 71 92 40
0.567100 -0.008393 3.074945 24 31 16
0.575504 -0.007842 3.076227 6 8 5
0.583050 -0.005860 3.079790 3 2 2
0.618150 -0.014933 3.079880 100 129 51
0.541038 -0.021638 3.073666 81 113 41
0.546628 -0.018310 3.074667 94 125 47
0.561333 -0.019012 3.071018 1 1 2
0.567026 -0.018873 3.074045 1 1 1
0.636573 -0.020928 3.078766 76 93 43
0.537570 -0.027305 3.075115 84 116 45
0.538683 0.049471 3.086113 55 71 34
0.548757 0.046295 3.086227 7 9 5
0.557189 0.046035 3.085999 3 4 4
0.567806 0.044751 3.087627 1 0 1
0.588242 0.045228 3.087181 1 0 1
0.539924 0.039672 3.083492 76 99 45
0.549048 0.037841 3.083915 31 40 21
0.557433 0.037420 3.085703 49 62 33
0.566341 0.037944 3.086569 47 60 29
0.576408 0.039208 3.086299 9 12 6
0.585500 0.040586 3.086804 1 1 1
0.532197 0.030486 3.081766 95 129 61
0.539747 0.028936 3.083469 39 51 25
0.549005 0.029843 3.083745 57 75 34
0.557322 0.030007 3.084893 89 117 51
0.566454 0.028729 3.086718 91 122 48
0.576784 0.027022 3.087168 86 118 43
0.584423 0.025804 3.088670 90 123 44
0.538529 0.021086 3.084628 3 4 3
0.549518 0.018681 3.085635 17 23 13
0.559562 0.019613 3.083312 94 127 49
0.567439 0.018741 3.085149 97 130 49
0.576177 0.019399 3.086555 95 128 46
0.586706 0.019234 3.086812 80 110 40
0.595828 0.020450 3.086425 28 39 16
0.547936 0.012842 3.080825 2 1 2
0.560063 0.009863 3.082458 78 102 44
0.567987 0.009174 3.084473 92 122 49
0.576819 0.008349 3.085782 88 117 46
0.586355 0.007479 3.086546 73 97 36
0.596302 0.007375 3.087702 65 88 35
0.605085 0.005979 3.087748 87 120 39
0.551480 -0.001618 3.081078 80 101 46
0.559896 -0.001036 3.082882 55 73 29
0.568190 -0.000820 3.084260 64 84 36
0.577148 -0.000715 3.085185 55 71 34
0.586154 -0.000182 3.086173 37 48 22
0.595974 -0.000312 3.087445 45 59 25
0.607341 -0.000440 3.085053 76 102 34
0.618368 -0.000054 3.085765 94 127 43
0.623508 0.000573 3.087901 96 130 40
0.551395 -0.013587 3.083328 108 138 53
0.558347 -0.009724 3.084183 98 130 52
0.568064 -0.008717 3.084186 55 71 32
0.576827 -0.008150 3.085452 9 12 7
0.586023 -0.007980 3.087183 0 0 1
0.601433 -0.010373 3.089070 47 58 29
0.607864 -0.009234 3.084181 92 115 47
0.616376 -0.008972 3.084256 103 130 47
0.626215 -0.011300 3.083551 95 121 48
0.549574 -0.019390 3.084053 82 114 39
0.556233 -0.016870 3.086018 76 106 38
0.569079 -0.018970 3.082537 0 1 1
0.579339 -0.016391 3.088811 2 2 1
0.607822 -0.016116 3.086982 26 33 17
0.618822 -0.018637 3.085674 34 45 22
0.628789 -0.020993 3.084021 26 33 16
0.548470 0.056443 3.096596 5 7 4
0.541000 0.049891 3.092912 91 114 53
0.547950 0.048004 3.093853 52 65 27
0.557765 0.046820 3.096153 13 16 10
0.566662 0.046106 3.097347 22 26 17
0.577630 0.045786 3.096987 59 78 38
0.586576 0.046099 3.096492 27 36 14
0.596447 0.045768 3.096284 0 0 1
0.541666 0.036225 3.094328 93 122 60
0.550282 0.039808 3.092667 54 68 30
0.558649 0.038227 3.094176 42 54 27
0.567300 0.038178 3.095432 64 83 40
0.576386 0.038609 3.096408 66 87 38
0.585493 0.039484 3.096304 52 68 29
0.596394 0.042229 3.095736 1 0 2
0.539422 0.032311 3.092694 76 98 49
0.549276 0.028705 3.093621 19 24 11
0.558866 0.031070 3.093602 73 96 41
0.567823 0.029679 3.094626 90 121 47
0.576936 0.028540 3.095873 89 122 45
0.587196 0.027053 3.096333 87 120 42
0.595040 0.026858 3.097880 93 126 45
0.539541 0.020473 3.093303 1 0 1
0.547358 0.020483 3.095396 1 1 1
0.560279 0.019460 3.093088 73 97 37
0.569235 0.019671 3.093294 97 129 50
0.577403 0.019228 3.095143 97 131 49
0.586864 0.019303 3.095942 94 128 45
0.596537 0.018742 3.097273 80 111 38
0.604404 0.018954 3.096658 29 40 13
0.560319 0.010225 3.092437 39 50 23
0.570283 0.009553 3.093332 72 95 38
0.577955 0.009448 3.094502 90 119 48
0.587400 0.008306 3.095373 83 110 44
0.596444 0.008280 3.096274 72 97 37
0.605810 0.007798 3.096162 50 67 26
0.614236 0.007015 3.093111 89 122 41
0.627294 0.005657 3.095244 87 120 39
0.633191 0.005389 3.096072 87 121 37
0.561038 -0.003783 3.092737 32 39 19
0.569226 -0.001141 3.093071 67 88 35
0.578373 -0.000677 3.094305 64 83 37
0.587115 -0.000235 3.095338 41 52 26
0.595991 0.000609 3.096255 26 34 17
0.607030 -0.000541 3.093942 63 80 33
0.616227 0.001390 3.093297 98 127 44
0.628028 0.002865 3.094961 91 123 41
0.635153 0.004095 3.097870 90 122 38
0.558939 -0.011712 3.094169 112 143 58
0.567607 -0.009587 3.094473 93 121 50
0.577435 -0.008926 3.094037 43 55 26
0.586296 -0.008077 3.095121 8 10 6
0.596406 -0.010636 3.095296 5 7 4
0.610284 -0.009849 3.094198 23 31 14
0.616657 -0.011076 3.091000 60 76 35
0.550888 -0.016520 3.096714 113 144 50
0.558398 -0.017384 3.095848 79 109 36
0.575298 -0.017871 3.090404 0 1 1
0.587768 -0.016291 3.097162 0 1 2
0.550779 0.056494 3.105717 59 74 35
0.556073 0.058763 3.105942 4 5 3
0.563556 0.055060 3.108088 1 1 1
0.548266 0.051310 3.103126 99 120 55
0.559324 0.047679 3.103141 47 58 29
0.567626 0.047659 3.105591 27 33 18
0.577694 0.046813 3.105955 25 32 17
0.587152 0.046686 3.105929 25 33 16
0.596640 0.047160 3.106570 19 26 12
0.606972 0.047251 3.105786 35 47 21
0.542973 0.034560 3.100272 94 128 52
0.560316 0.038647 3.102497 46 60 25
0.568661 0.038611 3.103933 54 71 32
0.577517 0.039275 3.105155 74 96 44
0.586530 0.039058 3.106237 82 109 46
0.595730 0.039734 3.106329 74 100 39
0.605158 0.036167 3.109983 91 124 54
0.550308 0.029164 3.102314 2 2 3
0.558105 0.029789 3.103910 24 31 15
0.568376 0.030913 3.104083 69 91 37
0.578201 0.029754 3.104311 90 121 45
0.587124 0.029005 3.105744 92 125 44
0.597141 0.027941 3.105770 91 124 44
0.605850 0.027997 3.107121 86 117 42
0.614160 0.026087 3.104888 46 63 26
0.547121 0.022457 3.101589 2 2 2
0.556089 0.023241 3.104935 3 3 2
0.568969 0.020677 3.101933 74 99 41
0.579269 0.019885 3.103280 93 124 47
0.588069 0.019442 3.104519 96 129 48
0.596971 0.019250 3.105732 88 121 42
0.606279 0.019003 3.106440 75 104 35
0.615761 0.016399 3.107420 67 92 34
0.623201 0.016896 3.109849 86 117 46
0.570740 0.010155 3.102520 1 1 2
0.578810 0.009560 3.103569 52 68 27
0.588145 0.009338 3.104433 84 110 46
0.597577 0.008510 3.105393 80 105 43
0.606075 0.009222 3.106459 69 93 36
0.615340 0.009632 3.106924 40 51 24
0.636754 0.005837 3.103600 90 121 42
0.569076 -0.003544 3.102779 113 145 62
0.578652 -0.000797 3.103348 83 109 44
0.588426 -0.000379 3.104109 60 78 35
0.596950 0.000548 3.105342 31 39 20
0.605841 0.001297 3.106228 12 15 9
0.616126 0.002612 3.105931 18 23 10
0.627913 0.003325 3.102346 92 121 44
0.561057 -0.013584 3.102679 113 146 49
0.568530 -0.010418 3.104355 103 134 52
0.578145 -0.009178 3.104487 92 117 50
0.587625 -0.009353 3.104674 28 34 17
0.595535 -0.008861 3.105735 4 5 4
0.603317 -0.008270 3.104902 2 2 3
0.560522 -0.018052 3.103444 82 113 36
0.562837 -0.016605 3.102186 81 111 39
0.582862 -0.016032 3.101468 1 3 3
0.559630 0.064400 3.115861 13 16 9
0.557216 0.060814 3.115743 57 76 31
0.569131 0.058615 3.113762 9 10 7
0.577862 0.055424 3.117430 13 15 8
0.584878 0.054586 3.116057 1 1 2
0.602246 0.054657 3.119610 50 64 30
0.607532 0.055945 3.118061 98 130 54
0.556649 0.052560 3.113028 92 127 39
0.569862 0.048741 3.113073 75 95 46
0.578054 0.048362 3.114484 37 47 24
0.587675 0.046804 3.115562 42 54 28
0.596541 0.047816 3.116396 42 54 27
0.606470 0.048846 3.116594 37 48 22
0.617001 0.050158 3.115990 54 72 31
0.626879 0.050290 3.115451 36 48 22
0.558370 0.038093 3.114241 53 67 36
0.570004 0.038285 3.113015 45 61 24
0.578470 0.039495 3.113983 53 69 30
0.587528 0.040246 3.114744 83 109 48
0.596968 0.039479 3.116010 90 121 47
0.606720 0.039063 3.116403 87 119 44
0.614429 0.036227 3.117472 90 124 43
0.552480 0.031774 3.110421 3 1 3
0.558623 0.028925 3.113655 1 2 2
0.568085 0.030768 3.114460 14 19 10
0.578084 0.031391 3.113693 69 91 38
0.588357 0.029901 3.113729 90 121 46
0.597333 0.029111 3.115229 93 127 45
0.607124 0.028542 3.115663 92 126 44
0.615289 0.028638 3.116976 86 119 42
0.625719 0.027292 3.117378 20 26 10
0.557998 0.021551 3.116990 0 0 0
0.565440 0.024136 3.119878 4 5 3
0.580890 0.017099 3.112508 51 68 30
0.589000 0.019909 3.113642 85 112 44
0.598350 0.019474 3.114377 92 125 45
0.606977 0.019480 3.115679 85 116 41
0.616224 0.019019 3.116185 71 97 34
0.624431 0.019091 3.115682 40 53 22
0.579954 0.011675 3.113943 0 0 1
0.588885 0.009898 3.113527 43 57 25
0.597984 0.009307 3.114319 81 105 45
0.607371 0.008894 3.115151 69 90 40
0.616121 0.009924 3.116425 57 75 31
0.625930 0.010220 3.118084 33 43 18
0.579334 -0.002437 3.113660 105 137 55
0.589240 -0.000096 3.113696 89 117 45
0.597927 0.000755 3.114349 56 72 33
0.606908 0.001480 3.115462 18 22 12
0.615571 0.002277 3.116690 14 17 9
0.571471 -0.010489 3.111213 103 135 51
0.577822 -0.009372 3.115060 102 133 53
0.586347 -0.008253 3.114882 95 123 51
0.598656 -0.008360 3.113754 2 3 2
0.604443 -0.008078 3.116150 4 6 5
0.569792 -0.019481 3.114245 85 118 38
0.573625 -0.019677 3.116713 90 119 37
0.561161 0.064411 3.124053 83 103 50
0.566002 0.066122 3.126476 53 67 31
0.576018 0.065636 3.126311 10 13 8
0.582741 0.064191 3.123289 2 1 3
0.560746 0.060305 3.122681 94 124 43
0.564561 0.059715 3.126270 91 124 37
0.581123 0.056328 3.123014 35 44 22
0.587443 0.057134 3.125511 16 19 11
0.595531 0.056327 3.127507 8 9 6
0.605809 0.055119 3.126204 30 39 18
0.617329 0.055628 3.127793 12 16 8
0.628108 0.056648 3.124980 1 1 1
0.637973 0.060310 3.127550 1 1 1
0.580011 0.049855 3.122361 80 104 46
0.588766 0.048431 3.124327 44 56 27
0.597881 0.047914 3.125134 57 73 37
0.606559 0.048259 3.126387 66 88 39
0.616428 0.049082 3.126905 57 77 31
0.625503 0.049109 3.125863 66 87 36
0.633774 0.052703 3.125000 0 0 1
0.567332 0.034555 3.126006 1 2 2
0.579467 0.038842 3.122918 19 25 11
0.588438 0.040296 3.123869 58 77 33
0.597687 0.040134 3.124489 87 117 47
0.607205 0.039124 3.125352 90 123 44
0.616968 0.037827 3.126321 90 124 43
0.624926 0.036546 3.127413 88 122 42
0.639547 0.035285 3.126099 0 0 0
0.570720 0.029077 3.121794 6 9 6
0.577405 0.031519 3.124109 18 23 13
0.588458 0.030632 3.124196 64 86 36
0.599375 0.029520 3.123390 90 122 44
0.607644 0.029038 3.124933 94 128 46
0.617146 0.028520 3.125689 93 127 44
0.626083 0.028414 3.127324 85 116 40
0.636826 0.030695 3.127579 32 45 16
0.645861 0.033446 3.128713 1 0 4
0.562401 0.023542 3.127554 1 0 0
0.576002 0.023976 3.125610 1 1 2
0.589789 0.018728 3.124506 34 44 21
0.598803 0.019579 3.124332 74 97 40
0.608003 0.019451 3.124285 90 120 45
0.617441 0.019002 3.125280 87 118 42
0.625968 0.018454 3.126473 73 99 37
0.636133 0.017799 3.127456 61 83 29
0.643486 0.018434 3.128005 98 130 47
0.589663 0.012309 3.122804 2 3 2
0.599440 0.009598 3.123168 54 72 29
0.608426 0.008886 3.124107 75 97 42
0.617291 0.009244 3.125333 57 74 34
0.626172 0.009704 3.126643 41 53 25
0.635069 0.011090 3.127124 40 53 25
0.649537 0.011041 3.129470 2 0 2
0.655595 0.011272 3.129159 1 0 1
0.578361 0.000178 3.120991 117 152 66
0.589409 -0.001546 3.124077 98 130 51
0.598431 0.000746 3.124094 82 108 43
0.607774 0.001705 3.124347 48 62 29
0.616596 0.001561 3.125064 9 12 7
0.626341 0.000667 3.127162 45 57 27
0.635465 -0.001032 3.129848 97 122 55
0.581247 -0.008072 3.120975 99 131 49
0.587169 -0.009053 3.124574 99 130 50
0.596727 -0.008607 3.123045 59 78 30
0.608510 -0.008437 3.125710 2 3 1
0.617870 -0.006750 3.126858 3 4 3
0.626603 -0.010382 3.125102 34 42 22
0.634589 -0.011977 3.128282 41 48 24
0.580852 -0.017349 3.125414 85 118 37
0.584077 -0.016877 3.128742 86 117 38
0.627485 -0.016930 3.125184 1 1 2
0.570232 0.066272 3.132749 87 111 47
0.577335 0.067421 3.135778 62 80 34
0.587525 0.066713 3.134666 8 10 5
0.598948 0.065041 3.138452 2 1 2
0.570134 0.061127 3.132020 93 126 37
0.576911 0.063348 3.138123 93 125 39
0.590425 0.057124 3.132730 65 82 40
0.597501 0.058131 3.135264 31 39 21
0.608112 0.056298 3.136256 29 37 18
0.617040 0.056002 3.136862 26 34 17
0.626385 0.056476 3.135871 22 29 14
0.636805 0.058031 3.136261 14 19 8
0.644920 0.057693 3.136525 37 51 20
0.654033 0.057532 3.133544 1 1 0
0.590443 0.049793 3.132218 81 109 43
0.598852 0.048271 3.133954 50 65 29
0.607701 0.049051 3.134719 70 91 43
0.616773 0.049233 3.136178 84 111 47
0.626064 0.049166 3.136824 81 109 42
0.636557 0.050667 3.136903 99 135 54
0.568420 0.034719 3.133934 0 0 0
0.579186 0.039734 3.133527 23 30 12
0.588686 0.039270 3.133484 16 22 10
0.598077 0.041040 3.133903 51 68 29
0.608261 0.039666 3.134033 86 117 44
0.617741 0.039306 3.135050 91 124 43
0.627196 0.038730 3.135653 90 124 42
0.635862 0.037886 3.137571 91 125 43
0.647257 0.037965 3.135159 23 32 12
0.579570 0.032794 3.133580 4 5 3
0.587575 0.030470 3.134780 12 15 9
0.598453 0.031139 3.133910 72 96 35
0.609039 0.029369 3.133395 95 126 49
0.618091 0.029161 3.134445 96 129 47
0.627352 0.028884 3.135331 92 125 44
0.636056 0.028864 3.136432 82 112 38
0.645673 0.028165 3.137439 59 80 27
0.653249 0.026913 3.138191 89 121 41
0.664211 0.024691 3.138744 0 1 0
0.565819 0.023637 3.130085 0 1 2
0.599177 0.018067 3.134011 13 17 9
0.608393 0.018268 3.134273 47 62 27
0.618150 0.019294 3.134264 89 118 46
0.627619 0.018737 3.134949 87 116 43
0.636772 0.018820 3.136377 79 105 40
0.646455 0.018968 3.137052 61 81 32
0.654736 0.020002 3.138551 40 53 26
0.663768 0.022506 3.139984 99 133 58
0.591667 0.005502 3.138604 118 152 65
0.598077 0.006506 3.136134 79 102 43
0.608986 0.008342 3.133583 75 100 39
0.618284 0.009287 3.133973 67 87 38
0.627104 0.009901 3.135208 43 54 27
0.636372 0.010598 3.136154 21 26 14
0.646060 0.010799 3.137771 32 41 23
0.656374 0.009836 3.138578 37 44 22
0.589997 0.001972 3.134110 116 149 64
0.598518 -0.000265 3.134041 102 135 53
0.608268 0.001539 3.134390 86 114 45
0.617764 0.001277 3.133982 37 47 22
0.626575 0.000961 3.135680 5 6 4
0.639721 -0.000113 3.134077 55 70 32
0.644893 0.000250 3.135226 67 84 37
0.588572 -0.014119 3.134959 83 113 37
0.597484 -0.007757 3.133385 84 113 41
0.605567 -0.007164 3.138884 87 113 43
0.615390 -0.010767 3.134675 1 1 1
0.624910 -0.005956 3.134926 0 0 1
0.579559 -0.019919 3.132262 83 116 37
0.583110 -0.018785 3.133462 86 116 41
0.579625 0.068055 3.142087 92 121 44
0.586688 0.070387 3.145978 65 86 34
0.601329 0.065376 3.142970 23 27 14
0.607714 0.066267 3.146017 5 7 4
0.616430 0.065172 3.147608 28 35 17
0.627830 0.065478 3.149046 1 1 1
0.639301 0.066824 3.145484 0 0 2
0.579992 0.063301 3.141143 91 125 36
0.599867 0.058111 3.142823 82 107 47
0.607936 0.058806 3.144924 41 53 26
0.618213 0.056895 3.145237 42 53 27
0.627276 0.057563 3.146516 53 69 34
0.636390 0.058111 3.146484 51 67 28
0.646116 0.058599 3.146753 54 73 28
0.654445 0.061278 3.145952 0 0 0
0.662698 0.054649 3.147943 104 139 57
0.599319 0.048457 3.142811 58 79 29
0.608833 0.049262 3.143795 48 64 26
0.617799 0.050120 3.144589 79 104 46
0.627043 0.049554 3.145675 91 122 48
0.636492 0.048722 3.146481 89 121 44
0.646285 0.048621 3.147204 90 124 45
0.657505 0.047506 3.146442 93 127 46
0.664073 0.047886 3.146950 54 71 31
0.588043 0.038161 3.141684 8 10 5
0.598172 0.039529 3.143998 9 12 7
0.608426 0.040744 3.143972 60 80 33
0.618342 0.040019 3.143839 90 122 44
0.628338 0.039721 3.144691 93 126 45
0.637511 0.038774 3.145537 94 128 45
0.646010 0.039118 3.146536 91 125 43
0.655756 0.038674 3.146869 57 79 27
0.664335 0.034526 3.149670 2 1 3
0.589237 0.031939 3.143337 1 1 1
0.599682 0.030835 3.144233 5 6 4
0.610082 0.028703 3.143442 68 90 39
0.618841 0.029937 3.144115 87 117 45
0.627934 0.029735 3.144492 94 126 46
0.637383 0.029780 3.144847 92 124 43
0.647086 0.028504 3.146223 82 112 39
0.655864 0.028050 3.147254 85 115 39
0.667693 0.027177 3.146523 35 48 17
0.678265 0.029797 3.146244 21 27 14
0.600124 0.019823 3.143950 0 0 1
0.608627 0.020176 3.143259 13 17 8
0.618503 0.019808 3.144256 49 63 29
0.628328 0.018639 3.144029 89 117 46
0.637890 0.018478 3.144845 81 105 44
0.646799 0.019207 3.145889 66 85 36
0.656339 0.019694 3.146483 47 61 27
0.665937 0.019933 3.147155 41 54 25
0.599328 0.007418 3.143215 119 153 66
0.608991 0.006413 3.144795 94 124 50
0.618600 0.008155 3.144134 81 107 42
0.628487 0.009790 3.143865 60 77 35
0.637347 0.010827 3.144802 30 37 19
0.645873 0.011695 3.146454 6 8 5
0.655788 0.012239 3.144482 14 18 10
0.662932 0.006932 3.142083 40 50 26
0.600996 -0.000430 3.144158 102 135 52
0.608296 -0.000200 3.144579 98 131 51
0.617526 0.000689 3.144167 90 115 49
0.627392 0.000721 3.144717 35 44 22
0.636798 0.001613 3.145509 4 5 3
0.600253 -0.010034 3.143507 82 113 37
0.606310 -0.008671 3.147490 83 114 37
0.616920 -0.008090 3.145000 43 58 22
0.624119 -0.009919 3.144786 1 1 2
0.635136 -0.006406 3.145962 1 1 4
0.590412 0.075475 3.154311 84 104 55
0.595758 0.075883 3.155082 54 69 32
0.605124 0.076950 3.156152 7 10 5
0.625747 0.074734 3.158195 1 2 1
0.589710 0.071116 3.153378 93 124 45
0.594129 0.073794 3.159654 90 126 40
0.610099 0.066371 3.152964 48 61 29
0.617380 0.067173 3.155549 28 35 19
0.626942 0.066776 3.156837 13 16 9
0.637599 0.065824 3.156893 37 49 21
0.645355 0.065707 3.158015 20 26 14
0.657182 0.065211 3.157940 70 95 36
0.665785 0.066266 3.158215 31 42 16
0.609351 0.060013 3.153351 90 119 49
0.618680 0.058722 3.154149 50 65 28
0.628408 0.058128 3.154577 55 71 34
0.637106 0.058952 3.155852 69 90 40
0.646179 0.058808 3.156536 75 100 41
0.656705 0.058661 3.156218 58 78 30
0.667438 0.055464 3.155536 100 135 53
0.677314 0.058728 3.158448 99 134 52
0.683037 0.061985 3.159904 93 128 48
0.599248 0.046069 3.152619 31 41 15
0.609411 0.048320 3.153205 37 50 19
0.618369 0.050306 3.153645 48 65 26
0.627840 0.050577 3.154410 85 113 44
0.637687 0.049630 3.154868 91 124 44
0.646130 0.048547 3.155833 93 126 45
0.656684 0.048112 3.155697 90 123 43
0.667556 0.050111 3.156447 98 131 50
0.677896 0.049019 3.158684 66 88 35
0.600414 0.039017 3.152929 2 3 2
0.607731 0.040783 3.154475 7 10 5
0.618873 0.041537 3.153018 80 108 38
0.628794 0.039271 3.153366 86 116 42
0.638267 0.039431 3.154003 94 127 45
0.646497 0.038313 3.155170 96 129 45
0.656743 0.037332 3.157040 86 117 40
0.667137 0.036829 3.156471 37 51 18
0.675582 0.038799 3.158478 44 60 20
0.607407 0.031617 3.152632 2 3 1
0.618162 0.028564 3.154506 20 26 13
0.628208 0.028628 3.154282 64 82 36
0.638045 0.029813 3.154195 89 118 44
0.647771 0.029177 3.154515 93 124 44
0.657686 0.028674 3.155544 86 114 41
0.666721 0.028767 3.156620 82 110 41
0.677231 0.028724 3.156451 64 85 35
0.684628 0.029423 3.156968 33 44 22
0.606834 0.021219 3.152616 1 1 1
0.618885 0.022317 3.152745 26 33 15
0.627695 0.020575 3.153669 41 53 23
0.638866 0.018779 3.153462 82 107 43
0.648090 0.018998 3.154561 66 84 37
0.656865 0.019522 3.155933 45 57 27
0.665995 0.020191 3.156660 28 35 18
0.675796 0.020615 3.156153 50 64 36
0.607394 0.007690 3.150904 114 147 62
0.619674 0.007172 3.153699 91 122 47
0.628449 0.009491 3.153971 89 118 46
0.637816 0.010462 3.154168 69 88 39
0.647427 0.011410 3.154576 25 32 16
0.655531 0.011645 3.156296 6 8 5
0.667138 0.011447 3.156484 1 1 1
0.610088 0.000300 3.151101 100 133 51
0.617640 0.001062 3.154124 99 130 51
0.626878 0.002679 3.155382 96 125 53
0.638241 -0.001506 3.154390 6 8 4
0.647349 0.001108 3.154356 0 1 2
0.653066 0.001722 3.158538 0 0 1
0.609183 -0.010010 3.155535 81 114 38
0.617279 -0.006602 3.155001 84 114 41
0.637761 -0.007482 3.156807 1 1 1
0.599209 0.077431 3.164552 90 117 44
0.605912 0.080597 3.165263 46 57 30
0.619818 0.078211 3.164955 16 21 11
0.627107 0.075532 3.167264 20 25 13
0.637601 0.075672 3.167763 2 2 2
0.655422 0.074727 3.169947 101 133 52
0.619144 0.067568 3.163585 84 110 47
0.627475 0.068453 3.165081 49 62 30
0.637942 0.067241 3.165336 27 34 17
0.647719 0.066745 3.165705 42 55 25
0.656542 0.067687 3.167042 39 51 23
0.666668 0.068279 3.166762 35 48 18
0.677474 0.067610 3.165510 46 64 23
0.683918 0.071506 3.169035 1 0 2
0.619314 0.060611 3.162220 87 118 41
0.629076 0.058405 3.163627 50 67 26
0.638063 0.059144 3.164146 64 83 38
0.647276 0.059578 3.165224 86 113 48
0.656225 0.059306 3.166640 91 122 48
0.666362 0.059490 3.166852 79 106 42
0.676895 0.059938 3.167093 86 116 45
0.685483 0.060975 3.165000 94 129 49
0.695668 0.058417 3.167800 45 62 22
0.605635 0.046380 3.162748 0 2 3
0.618707 0.048456 3.163571 17 23 9
0.627976 0.050687 3.163505 52 70 26
0.637533 0.051044 3.164266 82 112 42
0.647675 0.050136 3.164331 92 125 43
0.656937 0.049902 3.165640 94 128 45
0.666851 0.050898 3.166612 92 125 45
0.677438 0.050779 3.164510 83 113 41
0.687211 0.048548 3.165578 61 82 29
0.695157 0.048814 3.168438 0 0 0
0.607294 0.039943 3.163130 1 1 2
0.620916 0.041015 3.164673 44 57 24
0.628696 0.038682 3.163723 53 71 28
0.637757 0.039310 3.164920 81 107 41
0.648578 0.038916 3.163718 93 126 44
0.657795 0.037482 3.165480 94 127 43
0.667728 0.037003 3.166099 90 121 43
0.677448 0.037752 3.166591 82 111 38
0.684923 0.038133 3.167981 83 112 40
0.696381 0.035201 3.166895 32 43 16
0.611517 0.024555 3.160800 0 1 1
0.619201 0.029628 3.163837 1 1 2
0.628395 0.029899 3.164236 6 8 5
0.638382 0.029635 3.163653 33 43 21
0.648159 0.030058 3.164463 73 96 37
0.658062 0.028947 3.163937 92 121 46
0.667398 0.028615 3.165325 80 104 42
0.676638 0.029183 3.166145 73 95 39
0.686476 0.029939 3.166232 60 79 33
0.696229 0.029828 3.166701 64 86 41
0.631355 0.019499 3.164016 30 38 18
0.639102 0.017748 3.163057 71 94 35
0.648162 0.018386 3.164446 88 116 45
0.658094 0.019505 3.164300 55 69 32
0.667212 0.020532 3.165257 27 33 17
0.676266 0.021680 3.165963 6 7 5
0.685755 0.021633 3.165749 11 15 9
0.692700 0.022964 3.169196 12 14 9
0.621942 0.004228 3.160361 101 134 53
0.629490 0.007511 3.162992 102 134 54
0.638343 0.010376 3.164331 98 129 50
0.648208 0.011994 3.163031 71 91 39
0.657409 0.011526 3.164000 24 30 16
0.665407 0.011205 3.166348 2 2 2
0.622038 0.001521 3.160846 95 130 47
0.627139 0.002713 3.164233 99 132 49
0.647165 -0.000157 3.162851 5 7 5
0.655609 0.003753 3.164044 1 1 1
0.615026 -0.009049 3.160469 82 114 39
0.647682 -0.007441 3.165906 1 1 1
0.611110 0.084622 3.177246 96 119 58
0.616744 0.085826 3.176127 40 51 28
0.608340 0.082045 3.174546 86 111 44
0.618915 0.078867 3.176221 106 133 54
0.629990 0.076317 3.173668 53 69 27
0.638593 0.076940 3.175792 27 33 18
0.647288 0.076707 3.176159 12 14 8
0.657474 0.076892 3.176419 42 52 26
0.668455 0.075672 3.177308 20 26 11
0.676316 0.075831 3.178245 8 11 5
0.685907 0.075598 3.178470 31 42 16
0.698753 0.074163 3.172997 1 0 1
0.629231 0.069718 3.173357 93 122 46
0.637800 0.069539 3.174732 73 94 39
0.648523 0.067919 3.173990 38 48 24
0.657929 0.068211 3.175024 56 71 35
0.666638 0.068932 3.176917 61 79 36
0.676648 0.068360 3.176562 71 95 39
0.685785 0.069173 3.175809 53 73 26
0.696632 0.070590 3.176252 48 65 24
0.703130 0.064761 3.179573 92 125 44
0.630820 0.059615 3.173078 73 98 33
0.638932 0.058990 3.173352 40 55 21
0.647999 0.059935 3.174496 68 89 38
0.657766 0.060213 3.174276 92 122 48
0.666613 0.060049 3.175709 92 124 45
0.677069 0.058824 3.175569 88 119 44
0.688451 0.060194 3.175190 93 125 46
0.697159 0.059596 3.177903 93 126 46
0.706072 0.055581 3.178367 61 82 29
0.617080 0.050441 3.176156 0 0 0
0.628444 0.049853 3.173384 6 8 4
0.637527 0.051030 3.174197 41 54 23
0.647126 0.050999 3.174503 86 116 43
0.658238 0.049843 3.173620 92 125 42
0.667196 0.049706 3.175299 93 126 43
0.677977 0.048086 3.176141 88 119 42
0.686859 0.046695 3.176424 78 106 38
0.697451 0.046946 3.177006 59 81 29
0.705667 0.049357 3.177884 64 86 33
0.616806 0.042769 3.173531 1 0 1
0.629072 0.037425 3.173784 1 1 2
0.638884 0.038532 3.173393 27 37 15
0.647698 0.039230 3.174648 46 59 26
0.658190 0.038226 3.174234 77 101 39
0.668042 0.038980 3.174715 92 123 43
0.678027 0.038410 3.175038 92 123 43
0.687330 0.038765 3.175285 84 113 40
0.696184 0.039210 3.177081 89 119 44
0.706594 0.038938 3.176370 61 83 30
0.715627 0.038273 3.177776 67 90 41
0.632109 0.033164 3.170406 1 3 2
0.637287 0.032448 3.172734 2 3 2
0.648267 0.031761 3.172824 17 23 11
0.658561 0.029157 3.173901 69 92 35
0.669008 0.028636 3.174149 80 104 42
0.677767 0.029336 3.174872 69 87 38
0.686758 0.029319 3.175964 45 57 27
0.695624 0.030399 3.176962 27 34 18
0.706457 0.030234 3.175636 60 77 41
0.714009 0.033556 3.179798 91 118 61
0.641446 0.014558 3.172425 96 129 45
0.649995 0.017398 3.173706 89 119 44
0.658229 0.019804 3.173972 89 117 46
0.667652 0.020094 3.174220 58 73 34
0.677309 0.021334 3.174778 18 23 12
0.684606 0.022309 3.176451 4 5 3
0.696882 0.023424 3.174500 3 5 3
0.702980 0.024100 3.178409 0 1 1
0.639008 0.008482 3.174544 101 134 50
0.647138 0.011311 3.175384 99 131 50
0.658328 0.011490 3.175344 70 91 39
0.668861 0.010950 3.174244 9 12 6
0.676744 0.011208 3.176873 3 3 3
0.661195 -0.000060 3.174425 0 1 1
0.666124 0.001016 3.179736 1 1 0
0.681316 0.101233 3.186459 3 5 2
0.686299 0.096395 3.188848 55 72 41
0.618386 0.087296 3.185208 90 116 47
0.627045 0.090397 3.187576 59 74 39
0.637238 0.087773 3.184106 13 15 10
0.646984 0.086416 3.186872 3 5 3
0.654847 0.085875 3.189076 1 1 2
0.677202 0.084777 3.187254 100 131 54
0.688783 0.090208 3.186440 99 129 62
0.697224 0.087962 3.189939 51 65 30
0.614718 0.083170 3.182858 91 125 38
0.623016 0.076871 3.180279 108 142 41
0.640362 0.077633 3.183336 85 109 45
0.647610 0.078013 3.185264 63 80 38
0.657490 0.078123 3.185334 25 32 16
0.668478 0.076678 3.185391 29 37 18
0.677495 0.076387 3.186234 28 36 17
0.685875 0.077821 3.187801 31 41 20
0.696419 0.077417 3.185947 3 3 2
0.706052 0.078365 3.187613 1 1 2
0.720896 0.079625 3.184475 1 0 1
0.724207 0.081255 3.186414 0 0 3
0.639713 0.071744 3.182396 94 125 44
0.648611 0.069642 3.183282 74 98 36
0.658826 0.068238 3.183941 50 65 29
0.667975 0.069236 3.184454 66 86 40
0.677059 0.069111 3.185847 83 109 47
0.686282 0.068867 3.187055 88 118 47
0.696253 0.068788 3.187173 77 102 40
0.705533 0.067000 3.185395 91 124 46
0.640378 0.057534 3.182271 9 11 5
0.648998 0.059722 3.183500 26 35 14
0.657748 0.060987 3.183957 64 84 34
0.667797 0.060941 3.183954 91 122 46
0.677480 0.060781 3.184966 91 124 44
0.686773 0.060453 3.185783 92 125 44
0.696473 0.060279 3.187418 93 126 44
0.708092 0.058207 3.184224 81 111 40
0.717276 0.056811 3.186407 64 86 35
0.724423 0.057890 3.189047 51 68 28
0.627688 0.049694 3.182732 0 0 2
0.639441 0.050522 3.183116 21 28 12
0.647611 0.050661 3.184473 31 40 18
0.658193 0.049704 3.183373 79 106 39
0.668023 0.049806 3.183414 89 119 41
0.677741 0.048442 3.185525 93 126 42
0.688304 0.047365 3.185235 94 127 42
0.697869 0.047589 3.186082 88 119 42
0.707298 0.048263 3.186135 82 111 40
0.715474 0.048896 3.187741 87 118 43
0.725622 0.047294 3.186721 55 74 25
0.736472 0.048807 3.188738 2 1 1
0.637483 0.039506 3.181518 1 0 1
0.647874 0.039150 3.183335 2 3 2
0.658498 0.039174 3.183922 20 26 13
0.667985 0.039434 3.184317 51 66 28
0.678228 0.038943 3.184527 86 115 42
0.688370 0.038373 3.184749 90 119 45
0.697260 0.038616 3.185599 82 106 43
0.706612 0.039468 3.186490 81 104 44
0.716540 0.039628 3.186213 70 91 38
0.725871 0.037809 3.186931 57 72 37
0.732969 0.039662 3.189345 51 66 33
0.657913 0.032572 3.182111 1 1 3
0.668814 0.027626 3.184353 79 106 39
0.678525 0.028849 3.184656 81 105 42
0.687805 0.029630 3.184417 52 65 31
0.696840 0.030559 3.185625 25 31 16
0.705920 0.031306 3.186385 5 6 4
0.716673 0.030911 3.184613 23 29 16
0.651220 0.016544 3.182195 94 127 46
0.658460 0.018317 3.183677 95 128 47
0.667833 0.021029 3.183639 93 122 47
0.677299 0.021958 3.183407 76 96 42
0.686921 0.021500 3.184508 21 26 13
0.694980 0.021698 3.187852 3 4 2
0.649281 0.010385 3.184572 97 131 47
0.655915 0.010699 3.185767 101 133 54
0.666306 0.011674 3.184132 73 93 41
0.678100 0.010478 3.183851 3 4 3
0.686300 0.011557 3.184875 0 0 1
0.693989 0.013969 3.189188 0 0 1
0.679665 0.003133 3.188852 0 0 4
0.636231 0.095151 3.198222 68 86 39
0.643206 0.095535 3.197095 24 29 16
0.689101 0.100050 3.193057 13 17 11
0.695472 0.098281 3.197731 42 51 32
0.628271 0.091017 3.194261 93 121 46
0.638402 0.092445 3.191456 21 30 14
0.651491 0.086753 3.190814 15 18 11
0.658373 0.086760 3.194240 27 35 17
0.667966 0.086728 3.196780 18 22 13
0.677812 0.085531 3.196128 25 30 17
0.687404 0.086720 3.196948 35 44 21
0.698550 0.087087 3.196719 55 72 32
0.706260 0.086136 3.197554 20 26 12
0.713297 0.084732 3.199205 3 3 3
0.649835 0.078780 3.191393 92 123 45
0.658052 0.079469 3.193845 80 104 44
0.667834 0.078867 3.194846 56 72 32
0.678412 0.077475 3.194227 37 46 24
0.687670 0.077938 3.195504 51 66 32
0.696722 0.078310 3.197034 61 80 37
0.706211 0.077988 3.196962 63 84 34
0.716294 0.078313 3.196844 61 82 31
0.728772 0.083056 3.196272 4 5 3
0.745515 0.074841 3.198666 1 1 1
0.650542 0.072312 3.191613 91 124 40
0.660052 0.068977 3.192559 51 71 24
0.668805 0.068411 3.193818 42 55 24
0.677908 0.069594 3.194429 75 99 44
0.687558 0.069831 3.194568 90 120 49
0.697326 0.069407 3.195993 91 122 45
0.706518 0.068681 3.197008 89 120 43
0.716909 0.069730 3.197397 94 126 46
0.730197 0.068100 3.196894 64 86 32
0.736469 0.067475 3.196032 0 0 0
0.641564 0.057151 3.190783 1 0 2
0.649775 0.058962 3.193561 0 0 1
0.658585 0.060951 3.193654 15 20 8
0.667553 0.060369 3.193983 63 83 34
0.677952 0.060726 3.194546 89 119 45
0.687749 0.060833 3.194529 91 124 43
0.697770 0.060758 3.195035 91 124 42
0.707640 0.058642 3.196434 92 125 43
0.717434 0.056686 3.196482 85 115 42
0.726924 0.057872 3.195937 64 86 34
0.735466 0.059872 3.197043 49 65 25
0.744915 0.059606 3.198816 85 116 40
0.648230 0.048747 3.191856 2 3 2
0.658899 0.046584 3.196275 1 1 2
0.667811 0.048199 3.194769 25 32 16
0.678642 0.047627 3.194589 61 80 31
0.687702 0.048721 3.195095 87 114 42
0.698550 0.048258 3.194239 93 125 44
0.707555 0.048665 3.195421 93 124 44
0.717276 0.048714 3.195881 89 118 44
0.726026 0.048934 3.197007 91 119 46
0.736914 0.049143 3.196508 73 97 37
0.747011 0.047411 3.197497 67 88 44
0.649998 0.040531 3.190033 1 1 1
0.657769 0.041739 3.192247 2 2 2
0.668662 0.041332 3.192221 9 12 5
0.678337 0.040889 3.193201 38 51 21
0.687514 0.038869 3.194295 84 112 42
0.698404 0.038833 3.193751 82 106 44
0.707565 0.039305 3.195227 67 85 38
0.716604 0.039567 3.195981 49 61 29
0.725676 0.040039 3.197055 26 32 17
0.737264 0.039293 3.195705 39 51 28
0.746382 0.041561 3.198840 53 68 38
0.670711 0.026600 3.192913 91 124 45
0.678791 0.028763 3.193143 89 119 44
0.688014 0.029366 3.194509 86 113 44
0.697857 0.030137 3.194216 48 60 29
0.706772 0.031107 3.195419 13 16 9
0.714969 0.032764 3.195898 2 2 2
0.726617 0.032230 3.195111 1 2 2
0.657884 0.017059 3.192435 100 134 50
0.667706 0.020765 3.194100 97 130 48
0.676364 0.021233 3.194794 101 133 51
0.687453 0.021538 3.194084 68 85 40
0.698223 0.020996 3.193646 5 6 4
0.705475 0.021370 3.196637 1 1 2
0.657584 0.011407 3.192345 98 130 49
0.664702 0.013140 3.194447 101 134 52
0.689442 0.013020 3.194108 2 4 4
0.698867 0.012319 3.194855 1 1 2
0.639913 0.095979 3.204065 92 120 46
0.647316 0.098742 3.205761 63 77 38
0.656518 0.100078 3.207173 25 31 16
0.678575 0.096460 3.208446 2 3 3
0.684712 0.095103 3.208408 3 4 2
0.700767 0.099478 3.203167 29 35 22
0.705771 0.096985 3.206127 69 88 46
0.721960 0.094609 3.204288 0 0 1
0.635147 0.092733 3.201875 93 127 39
0.659471 0.086411 3.201764 94 125 45
0.669229 0.087192 3.204357 74 95 42
0.677613 0.088813 3.205319 44 55 28
0.687444 0.087456 3.205467 28 35 18
0.698237 0.086888 3.205668 24 31 15
0.707646 0.086737 3.206235 28 37 17
0.716073 0.087877 3.207167 27 35 17
0.726714 0.087757 3.205927 12 15 8
0.735509 0.089658 3.207592 2 3 2
0.745734 0.088471 3.201773 0 1 2
0.756992 0.091127 3.207278 2 1 3
0.661190 0.080368 3.201243 92 125 42
0.667963 0.080699 3.203433 92 124 43
0.678339 0.078716 3.203930 64 85 32
0.688842 0.078261 3.204094 47 61 29
0.697997 0.079136 3.204419 65 84 40
0.707108 0.079219 3.205784 80 105 46
0.716587 0.078531 3.206826 88 117 46
0.726076 0.077745 3.206898 89 121 45
0.737076 0.076392 3.208137 95 129 46
0.748924 0.075447 3.206587 50 67 25
0.757656 0.075052 3.209075 0 0 1
0.669974 0.067024 3.202661 24 32 12
0.678888 0.068990 3.203256 27 36 16
0.687730 0.070178 3.204332 68 90 37
0.697660 0.070158 3.204224 89 119 45
0.707317 0.069868 3.205098 90 123 43
0.716944 0.070312 3.206302 91 123 43
0.727183 0.070831 3.206027 91 124 43
0.737840 0.066950 3.206140 75 102 36
0.747128 0.067982 3.207430 61 84 31
0.660616 0.060603 3.203371 0 1 1
0.668458 0.061418 3.203678 16 21 10
0.677686 0.060685 3.203247 60 77 33
0.687423 0.059097 3.204488 77 102 40
0.698247 0.059434 3.203919 92 124 43
0.707140 0.059197 3.205089 92 125 42
0.717992 0.057898 3.204397 91 124 41
0.727273 0.058001 3.206053 92 123 44
0.737239 0.058687 3.206365 86 115 42
0.745857 0.058593 3.207818 90 119 44
0.757205 0.056849 3.207341 21 28 11
0.668383 0.046998 3.201644 0 1 1
0.678652 0.049223 3.204155 28 37 14
0.688245 0.049637 3.204619 31 40 19
0.697790 0.050252 3.204720 68 87 37
0.708618 0.048879 3.204031 90 119 44
0.718064 0.048691 3.204200 90 117 46
0.727176 0.048859 3.205728 83 106 44
0.736538 0.049337 3.206606 71 91 40
0.745462 0.050902 3.206413 66 84 34
0.757074 0.048319 3.203951 71 90 49
0.767252 0.048218 3.207610 67 86 47
0.773537 0.051223 3.209635 89 117 62
0.672445 0.043504 3.200455 4 5 5
0.680731 0.043417 3.202764 2 1 2
0.690160 0.039173 3.202114 70 94 36
0.698058 0.038218 3.204723 85 114 43
0.708054 0.039330 3.204482 75 97 40
0.717780 0.039653 3.204236 48 60 29
0.726768 0.040489 3.205637 20 25 13
0.735860 0.042408 3.207009 3 4 3
0.747700 0.040504 3.203515 3 5 3
0.756295 0.042196 3.204825 21 27 17
0.764960 0.041985 3.209675 1 0 1
0.680611 0.027218 3.203190 90 123 43
0.688616 0.030235 3.203020 86 116 42
0.697680 0.031349 3.203585 94 122 48
0.707655 0.031303 3.203745 61 77 36
0.716213 0.031283 3.204947 18 23 12
0.724932 0.032956 3.207950 3 4 3
0.679037 0.021450 3.203627 95 128 48
0.686546 0.022026 3.204782 101 132 53
0.698753 0.021230 3.203653 40 52 23
0.707070 0.019740 3.203951 5 6 4
0.719390 0.020541 3.206978 1 1 1
0.661065 0.013374 3.201470 97 130 49
0.694380 0.008529 3.200205 1 1 1
0.706622 0.013349 3.208924 0 0 0
0.659172 0.104527 3.217351 70 90 41
0.668533 0.105244 3.217010 24 30 15
0.680595 0.105596 3.218079 2 2 2
0.742402 0.105722 3.219450 96 128 53
0.647884 0.098708 3.211566 94 126 44
0.654512 0.101800 3.215536 85 110 44
0.678361 0.097160 3.211581 12 15 9
0.688492 0.096318 3.214669 23 30 17
0.696631 0.096759 3.216640 18 22 13
0.708438 0.097347 3.214582 22 28 14
0.718140 0.097376 3.216924 34 43 21
0.727555 0.096571 3.216862 56 72 31
0.736679 0.095491 3.217676 1 1 1
0.744580 0.095308 3.217560 2 3 2
0.765662 0.094842 3.216072 2 0 2
0.671472 0.089226 3.210944 96 127 45
0.679036 0.088840 3.213108 90 118 47
0.687409 0.090068 3.215102 81 104 45
0.697886 0.088620 3.215198 48 62 29
0.708589 0.087601 3.214467 34 44 22
0.717866 0.087831 3.215446 50 64 31
0.726911 0.088582 3.216926 58 76 35
0.736407 0.088213 3.216984 64 85 35
0.745919 0.090317 3.217052 31 41 16
0.757001 0.093913 3.217868 2 3 4
0.775716 0.086585 3.216927 0 0 1
0.676977 0.082929 3.211727 92 124 40
0.688474 0.079541 3.212498 57 78 26
0.698553 0.078331 3.213668 47 61 27
0.707877 0.079388 3.214420 74 97 43
0.717780 0.079592 3.214392 89 118 47
0.727489 0.079105 3.215583 90 122 44
0.736758 0.078477 3.217050 92 125 44
0.745009 0.078323 3.217460 95 128 45
0.757277 0.076932 3.214486 32 44 16
0.766758 0.076682 3.216963 42 58 23
0.773546 0.083968 3.219273 0 1 0
0.668789 0.066445 3.213770 1 0 1
0.679108 0.066595 3.213921 5 5 3
0.688075 0.069878 3.213787 22 29 12
0.697869 0.071123 3.214405 56 73 31
0.708502 0.070284 3.213866 90 120 43
0.717798 0.069869 3.214360 91 124 42
0.727454 0.070647 3.214941 91 125 42
0.737715 0.068166 3.215333 93 125 43
0.747114 0.067109 3.216087 87 116 41
0.756465 0.068141 3.216990 81 109 41
0.767341 0.066340 3.216649 99 128 47
0.777204 0.068447 3.217634 68 86 34
0.670474 0.058769 3.214519 2 3 3
0.680047 0.059043 3.214511 2 3 2
0.689077 0.057962 3.216432 13 16 7
0.698228 0.056716 3.214822 30 38 18
0.708299 0.058519 3.213788 72 93 37
0.717221 0.059129 3.215379 86 112 44
0.727938 0.058810 3.214230 92 124 44
0.738109 0.058616 3.214754 91 121 44
0.747126 0.059206 3.215862 91 118 45
0.756270 0.059394 3.217135 85 110 44
0.766268 0.060181 3.216128 46 61 23
0.776511 0.061694 3.216329 20 27 10
0.786579 0.057282 3.217808 94 120 60
0.679489 0.051635 3.212608 0 0 0
0.688547 0.050635 3.215223 37 50 20
0.697496 0.050752 3.214550 34 45 19
0.708542 0.049074 3.213089 57 76 30
0.718117 0.048617 3.214510 81 109 40
0.728379 0.048800 3.214028 77 99 42
0.737636 0.049373 3.215051 58 73 35
0.746610 0.049959 3.215990 34 42 22
0.755111 0.051359 3.217742 14 18 9
0.767718 0.048437 3.215597 9 12 7
0.777376 0.049917 3.216181 35 45 26
0.783200 0.052292 3.219416 24 30 19
0.692200 0.035412 3.210977 2 0 0
0.700007 0.038609 3.213301 93 127 45
0.708832 0.038520 3.213304 90 121 44
0.718109 0.039673 3.214074 85 110 45
0.727832 0.040161 3.214370 47 59 29
0.736627 0.041505 3.215577 12 14 8
0.743801 0.042305 3.217453 2 3 2
0.689601 0.029895 3.214041 85 117 39
0.699137 0.027799 3.214828 100 130 50
0.707096 0.031141 3.213884 100 130 53
0.717400 0.031203 3.214287 69 88 38
0.727129 0.031114 3.215374 14 18 8
0.735453 0.030657 3.216214 1 0 2
0.681362 0.023626 3.210455 97 129 47
0.687231 0.021480 3.213744 99 131 49
0.695206 0.023214 3.214842 103 134 51
0.710289 0.018196 3.210116 2 2 3
0.717640 0.022271 3.213336 2 3 2
0.713965 0.013461 3.214846 1 0 3
0.650608 0.106601 3.227588 90 125 33
0.660649 0.104538 3.221069 96 124 47
0.667346 0.106682 3.224846 88 110 45
0.676655 0.109904 3.227584 54 66 33
0.687849 0.107362 3.220876 1 1 1
0.697967 0.105131 3.224367 6 8 6
0.707539 0.105874 3.228727 12 15 8
0.717830 0.105509 3.228588 1 2 3
0.728710 0.105593 3.226202 0 1 1
0.737632 0.105094 3.227451 76 98 42
0.747137 0.106246 3.228812 101 130 56
0.756743 0.104962 3.228268 1 1 1
0.659889 0.102656 3.221531 94 126 38
0.689241 0.098274 3.224188 65 87 29
0.698521 0.097152 3.224403 73 94 43
0.707477 0.098694 3.225019 43 54 28
0.717794 0.097732 3.225263 26 32 17
0.728373 0.097874 3.225843 27 35 17
0.737603 0.096932 3.226220 38 50 23
0.746669 0.097078 3.227067 31 41 19
0.756348 0.098949 3.226402 17 23 9
0.767159 0.097901 3.226871 14 19 9
0.777218 0.100350 3.227319 2 1 2
0.782801 0.101054 3.226379 1 1 1
0.793414 0.102488 3.229647 0 1 2
0.689976 0.091085 3.221520 93 124 46
0.697778 0.090847 3.224240 92 123 43
0.707962 0.089596 3.224187 74 96 38
0.718479 0.087945 3.224044 45 58 27
0.728057 0.089291 3.224396 63 81 37
0.737292 0.089321 3.225399 80 104 45
0.746680 0.088382 3.226778 89 119 46
0.756207 0.087612 3.228047 90 120 42
0.767802 0.086002 3.228047 88 119 38
0.782060 0.086705 3.228792 96 128 45
0.786782 0.087742 3.226357 34 45 17
0.699345 0.077519 3.223055 32 42 16
0.708918 0.078642 3.223794 33 44 18
0.717707 0.079987 3.224510 66 87 37
0.727618 0.080403 3.224744 88 118 46
0.737855 0.080014 3.223981 91 123 43
0.747374 0.080012 3.224885 93 126 43
0.756474 0.079877 3.226849 95 126 43
0.767319 0.078793 3.226676 73 97 36
0.776745 0.078189 3.227510 65 86 31
0.680907 0.069786 3.222759 22 29 14
0.689672 0.070460 3.225462 12 16 8
0.698231 0.071414 3.224099 16 20 9
0.706957 0.071607 3.222803 47 60 27
0.718296 0.070150 3.223028 86 114 46
0.728351 0.069718 3.224609 92 123 43
0.737913 0.069267 3.224535 93 126 42
0.748233 0.068364 3.224308 95 127 43
0.757590 0.068169 3.225143 91 121 43
0.766851 0.068605 3.226215 88 116 42
0.776361 0.068619 3.227460 94 121 45
0.786378 0.068582 3.226208 43 55 21
0.795931 0.069083 3.227851 0 1 0
0.809259 0.066292 3.228534 99 131 65
0.679487 0.061607 3.221483 1 1 1
0.692029 0.058369 3.224432 2 1 2
0.699646 0.057216 3.222137 20 26 11
0.708508 0.058151 3.223451 21 29 12
0.718067 0.060144 3.224106 33 43 19
0.727742 0.059904 3.224712 54 70 30
0.737927 0.058802 3.223875 89 118 44
0.748013 0.058613 3.224293 82 105 43
0.757362 0.059205 3.225503 73 92 41
0.766766 0.059316 3.226725 52 64 32
0.776131 0.060820 3.226944 33 41 19
0.788198 0.057768 3.224152 40 52 30
0.797345 0.059681 3.225973 65 84 46
0.804425 0.062969 3.228795 82 108 60
0.687454 0.050645 3.220699 47 64 24
0.698884 0.050099 3.222772 94 128 47
0.707814 0.050721 3.223453 91 123 47
0.718731 0.048468 3.222880 77 105 39
0.728650 0.048282 3.224000 82 109 41
0.737964 0.049375 3.224674 77 100 42
0.747576 0.049601 3.224318 40 49 25
0.757053 0.051446 3.225294 9 11 7
0.764952 0.052422 3.226351 2 3 2
0.779508 0.049101 3.223874 1 0 1
0.787621 0.052779 3.224597 7 9 6
0.688342 0.042504 3.221312 96 129 49
0.709486 0.038958 3.220834 92 127 45
0.717757 0.039567 3.222568 94 127 47
0.727699 0.040737 3.223411 95 124 49
0.737259 0.041037 3.223744 54 68 31
0.746328 0.041099 3.224802 13 16 9
0.753521 0.042017 3.228769 4 6 3
0.690920 0.026281 3.220473 94 126 43
0.698812 0.026700 3.222214 96 129 48
0.708517 0.030675 3.224615 96 129 49
0.717555 0.032539 3.225760 96 129 48
0.731109 0.029039 3.220719 2 2 2
0.736790 0.031176 3.223366 2 2 3
0.745026 0.031445 3.226351 0 1 0
0.689700 0.114898 3.237116 54 65 35
0.760237 0.115741 3.238402 105 133 53
0.679497 0.112693 3.233338 71 89 44
0.685866 0.113198 3.234763 61 76 36
0.708528 0.109628 3.232078 6 7 6
0.718138 0.107549 3.235157 25 31 17
0.727138 0.106910 3.236747 26 31 18
0.737872 0.106230 3.234902 13 17 10
0.747666 0.106506 3.236238 43 55 24
0.757379 0.107000 3.237217 55 70 30
0.766913 0.106081 3.236706 11 15 7
0.776452 0.106956 3.238407 2 3 3
0.792300 0.112605 3.239511 0 0 2
0.692168 0.099634 3.230893 91 125 37
0.699220 0.096928 3.231365 93 124 43
0.708270 0.099080 3.233481 90 117 46
0.717286 0.099549 3.234871 83 108 45
0.727851 0.099082 3.234939 52 67 30
0.738728 0.097590 3.234052 36 45 22
0.748085 0.097902 3.235060 49 62 30
0.756898 0.098496 3.236556 62 78 35
0.766442 0.098420 3.237544 69 90 36
0.775757 0.099681 3.237435 58 76 28
0.787652 0.103236 3.236071 2 4 3
0.797816 0.103675 3.230208 0 1 1
0.805975 0.097757 3.235723 0 0 3
0.706250 0.092639 3.231875 92 124 39
0.719179 0.089259 3.232303 55 74 26
0.728694 0.087956 3.233828 44 59 24
0.737825 0.089150 3.234540 71 92 39
0.747600 0.089863 3.234434 90 118 46
0.757504 0.089319 3.234681 93 124 44
0.767134 0.088485 3.236308 93 125 42
0.775998 0.088383 3.237489 94 126 42
0.787636 0.087282 3.236799 62 81 30
0.796330 0.088710 3.237510 25 33 11
0.804296 0.093384 3.239998 1 3 2
0.688772 0.076334 3.235065 6 10 6
0.697465 0.076298 3.232777 43 54 26
0.708706 0.076796 3.233463 30 37 18
0.718353 0.079514 3.233637 29 38 15
0.727542 0.080711 3.234328 50 64 30
0.737936 0.080061 3.234297 87 116 44
0.747340 0.079523 3.235053 93 125 42
0.757865 0.079838 3.234273 93 126 42
0.768198 0.079319 3.235055 95 127 42
0.777010 0.078257 3.235899 89 118 41
0.787355 0.076810 3.236832 81 107 39
0.796303 0.076296 3.237495 91 119 43
0.806952 0.076891 3.235557 37 47 17
0.814197 0.078314 3.239094 1 1 1
0.682227 0.073804 3.230819 5 8 5
0.695711 0.065630 3.234840 0 0 1
0.707072 0.071773 3.233609 2 3 2
0.719124 0.067426 3.234153 16 21 11
0.728376 0.068230 3.235122 31 40 19
0.737848 0.069442 3.234395 67 87 35
0.747615 0.069187 3.234647 77 101 37
0.758340 0.069013 3.233801 92 122 44
0.768013 0.068643 3.234555 88 114 44
0.777432 0.068954 3.236017 84 107 43
0.786533 0.068931 3.236297 74 94 39
0.795602 0.070033 3.237293 48 61 25
0.805138 0.070200 3.234594 16 21 12
0.817469 0.068589 3.235966 89 112 59
0.825317 0.073637 3.238497 102 132 66
0.709898 0.061375 3.230699 3 2 4
0.717527 0.061996 3.231680 2 3 2
0.728097 0.061326 3.232752 10 13 6
0.738390 0.059760 3.232967 45 62 23
0.748187 0.057803 3.234070 77 103 38
0.757903 0.058967 3.234246 72 91 40
0.767498 0.059611 3.234684 49 61 31
0.776851 0.060674 3.235383 25 31 16
0.785727 0.062161 3.237035 2 3 3
0.798326 0.058754 3.232296 1 2 1
0.807380 0.061074 3.234840 28 36 22
0.814723 0.064107 3.239826 17 21 12
0.709219 0.046270 3.237113 94 127 46
0.716865 0.046371 3.232128 103 136 55
0.728972 0.049377 3.232854 24 31 13
0.739549 0.049476 3.232810 83 111 41
0.747968 0.049901 3.234299 86 110 45
0.757553 0.050877 3.234905 47 58 30
0.766002 0.051328 3.236213 13 15 9
0.774517 0.052332 3.238757 0 0 1
0.789035 0.052915 3.231883 2 2 2
0.700898 0.039759 3.237990 98 131 50
0.705888 0.041887 3.236390 100 133 53
0.719099 0.036943 3.231640 95 127 45
0.727217 0.039670 3.233682 96 128 49
0.736663 0.041104 3.234045 99 128 51
0.745871 0.041371 3.232834 68 84 37
0.755010 0.040746 3.233958 2 3 2
0.715544 0.033346 3.231077 94 128 46
0.746976 0.033190 3.232848 0 1 1
0.755491 0.033723 3.239937 1 1 1
0.671295 0.119909 3.247482 94 124 41
0.690324 0.116869 3.243286 90 113 51
0.698013 0.117869 3.243958 65 81 41
0.706932 0.120645 3.248887 62 76 38
0.715909 0.118364 3.241095 3 1 4
0.726943 0.117795 3.244964 4 5 4
0.735775 0.116946 3.247512 8 10 6
0.744444 0.116007 3.247781 2 3 1
0.758290 0.114902 3.245753 1 0 1
0.767713 0.116895 3.246069 69 87 37
0.776642 0.120546 3.247791 107 135 52
0.787367 0.115339 3.248263 19 24 11
0.797209 0.116021 3.248739 0 0 1
0.804479 0.115287 3.249783 96 121 58
0.826869 0.115319 3.244380 101 136 53
0.833640 0.115489 3.248916 1 1 0
0.721001 0.105154 3.242476 96 123 52
0.728330 0.107703 3.244202 75 96 43
0.737576 0.109167 3.245364 51 64 31
0.747635 0.107991 3.244944 33 40 21
0.758054 0.107509 3.244405 30 37 19
0.767699 0.106730 3.245803 32 41 18
