ply
format ascii 1.0
element vertex 1266
property float x
property float y
property float z
property uchar red
property uchar green
property uchar blue
end_header
-0.411238 -0.032203 3.037107 28 46 20
-0.404826 -0.033719 3.033175 43 74 25
-0.392433 -0.033470 3.035157 14 27 15
-0.382614 -0.033036 3.035857 27 45 25
-0.373601 -0.033420 3.033995 36 62 31
-0.363129 -0.034083 3.035366 37 68 28
-0.353438 -0.033116 3.034524 34 58 29
-0.342814 -0.032777 3.034675 39 68 32
-0.328267 -0.036529 3.035666 42 66 38
-0.309447 -0.030579 3.039862 71 104 37
-0.303884 -0.030033 3.033906 70 102 37
-0.293348 -0.031781 3.037333 30 44 18
-0.412898 -0.042267 3.034776 29 47 20
-0.401487 -0.044791 3.034346 46 82 37
-0.388662 -0.047465 3.034156 41 73 40
-0.382828 -0.042636 3.034534 30 54 22
-0.373136 -0.047103 3.034054 26 49 20
-0.363226 -0.045870 3.034714 22 37 18
-0.353121 -0.045205 3.036448 37 65 28
-0.342588 -0.044518 3.033648 26 55 22
-0.334866 -0.047485 3.033378 15 24 13
-0.311665 -0.046985 3.035474 11 19 9
-0.429325 -0.057740 3.032216 20 34 25
-0.419625 -0.050722 3.036502 6 10 4
-0.415720 -0.057908 3.037822 25 48 33
-0.396231 -0.052660 3.034505 31 52 26
-0.379629 -0.052951 3.035070 37 63 30
-0.371827 -0.050013 3.036068 34 59 25
-0.362386 -0.053117 3.034818 39 71 33
-0.351893 -0.052077 3.035833 37 73 28
-0.329646 -0.051660 3.037946 30 59 20
-0.317593 -0.051166 3.031462 35 61 25
-0.419601 -0.064775 3.038164 6 14 8
-0.408343 -0.063193 3.036547 4 9 5
-0.402393 -0.063157 3.038846 33 52 31
-0.391599 -0.066491 3.037918 43 75 34
-0.383540 -0.065103 3.037004 5 7 5
-0.371493 -0.064975 3.035201 31 61 32
-0.360967 -0.064844 3.034266 35 62 32
-0.355198 -0.065851 3.036906 26 42 21
-0.346570 -0.061984 3.033098 31 52 23
-0.403188 -0.075238 3.031228 30 55 32
-0.392506 -0.072556 3.034235 37 75 40
-0.374684 -0.074898 3.037493 28 50 23
-0.357972 -0.071767 3.030745 12 18 10
-0.353028 -0.074265 3.034900 28 47 28
-0.337899 -0.073966 3.032907 45 74 35
-0.414353 -0.089290 3.037329 3 3 3
-0.404574 -0.082599 3.036683 25 47 31
-0.393261 -0.085978 3.034080 26 36 23
-0.381984 -0.080528 3.035802 47 75 34
-0.372018 -0.080359 3.031285 26 44 15
-0.389955 -0.093511 3.037923 28 40 25
-0.380851 -0.093027 3.037109 43 70 34
-0.364438 -0.106483 3.035199 40 74 32
-0.380020 -0.112802 3.035490 16 24 13
-0.373785 -0.111083 3.034515 42 65 34
-0.377124 0.011758 3.042252 24 41 31
-0.280394 0.011127 3.043800 50 72 29
-0.270423 0.014190 3.046494 74 111 38
-0.264427 0.016941 3.044061 65 101 31
-0.451452 0.007412 3.045765 29 53 21
-0.440474 0.006237 3.046360 34 59 20
-0.432279 0.005864 3.044657 42 70 26
-0.422893 0.005465 3.044890 45 76 26
-0.411291 0.004898 3.044729 42 70 28
-0.399994 0.005895 3.044325 31 48 16
-0.396886 0.001592 3.043408 40 76 37
-0.380827 0.004695 3.046715 23 39 24
-0.372556 0.004304 3.044523 22 35 21
-0.360486 0.002776 3.045905 8 13 7
-0.354534 0.002108 3.045760 16 28 14
-0.342575 0.005938 3.046010 28 55 30
-0.333134 0.009041 3.046175 30 54 26
-0.288405 0.007134 3.044041 6 11 5
-0.281713 0.007448 3.046973 28 44 17
-0.275170 0.008833 3.045753 68 101 41
-0.455632 -0.008776 3.047550 52 97 42
-0.442741 -0.004906 3.045208 19 37 21
-0.434098 -0.000883 3.045814 42 80 35
-0.422145 -0.003848 3.045647 36 62 25
-0.416525 -0.006395 3.044942 50 80 22
-0.400792 -0.005044 3.043603 28 55 32
-0.393570 -0.002830 3.047771 35 69 35
-0.386015 -0.001696 3.043584 42 71 33
-0.377516 0.000355 3.044716 44 66 36
-0.361943 -0.005264 3.045037 40 69 29
-0.352918 -0.004636 3.046257 20 34 15
-0.345365 -0.008464 3.043667 27 49 25
-0.313701 -0.006967 3.045834 12 18 12
-0.301553 -0.007699 3.048740 1 1 2
-0.287991 -0.009165 3.049510 12 21 11
-0.284479 -0.002505 3.046870 26 42 16
-0.450869 -0.014826 3.047998 54 101 37
-0.439810 -0.011594 3.046804 44 79 35
-0.431358 -0.013707 3.044312 22 38 18
-0.423117 -0.015124 3.046830 25 43 19
-0.414616 -0.019108 3.049999 49 78 20
-0.403879 -0.014737 3.044001 31 57 22
-0.393631 -0.016638 3.043734 38 68 33
-0.382371 -0.011706 3.045079 47 86 36
-0.373006 -0.013894 3.043660 14 28 13
-0.362122 -0.016180 3.045356 29 60 28
-0.351750 -0.015013 3.045175 36 64 32
-0.343763 -0.014003 3.045167 29 51 27
-0.334054 -0.015681 3.044129 21 35 20
-0.322718 -0.014869 3.044036 11 20 11
-0.302260 -0.010468 3.049423 43 71 41
-0.293840 -0.013410 3.045275 13 22 12
-0.283557 -0.012140 3.044736 28 45 26
-0.272213 -0.015193 3.046119 42 63 28
-0.262330 -0.012463 3.046033 74 113 34
-0.250984 -0.012239 3.044003 42 64 23
-0.244534 -0.011120 3.045721 26 39 16
-0.436590 -0.020939 3.047886 6 11 6
-0.410681 -0.024392 3.045995 34 55 23
-0.401093 -0.026898 3.046960 31 56 29
-0.390520 -0.023166 3.045281 28 57 27
-0.382411 -0.026205 3.046373 29 59 29
-0.371763 -0.025365 3.044995 33 60 27
-0.363362 -0.023146 3.045536 41 77 32
-0.354175 -0.024732 3.044810 40 73 33
-0.343280 -0.024545 3.044469 36 62 31
-0.334173 -0.026673 3.047165 35 64 41
-0.320952 -0.023302 3.044953 29 52 19
-0.315076 -0.028944 3.040003 40 70 20
-0.281719 -0.025487 3.044345 0 0 1
-0.275706 -0.023048 3.048133 14 22 11
-0.411201 -0.031073 3.044756 35 58 25
-0.403053 -0.036267 3.045326 35 64 20
-0.391553 -0.033916 3.045711 18 36 20
-0.382201 -0.033874 3.045218 32 55 28
-0.372852 -0.032682 3.044402 38 70 31
-0.363785 -0.033755 3.045224 34 64 26
-0.354252 -0.034989 3.047067 30 59 26
-0.343999 -0.031079 3.047358 36 64 31
-0.330330 -0.034672 3.045685 33 50 29
-0.314023 -0.030859 3.047691 58 89 30
-0.301652 -0.032526 3.046207 59 84 31
-0.292756 -0.034334 3.045511 11 16 8
-0.421013 -0.048993 3.049540 21 32 15
-0.413261 -0.042187 3.044507 33 54 24
-0.402585 -0.046037 3.045096 43 83 39
-0.393708 -0.043443 3.044686 36 70 42
-0.382964 -0.044496 3.045092 27 48 22
-0.370944 -0.043884 3.044379 36 68 29
-0.363286 -0.041954 3.047294 29 51 24
-0.353303 -0.042348 3.045862 33 62 29
-0.346102 -0.049270 3.047616 11 23 14
-0.334611 -0.047338 3.045384 31 53 25
-0.323262 -0.047387 3.045058 30 49 25
-0.421043 -0.051781 3.043409 24 47 25
-0.411415 -0.049903 3.043689 23 49 24
-0.403438 -0.054430 3.043477 35 59 30
-0.391621 -0.051837 3.046025 40 73 36
-0.382365 -0.055863 3.044750 37 68 34
-0.373947 -0.050942 3.045169 30 50 24
-0.362681 -0.055922 3.044325 38 68 31
-0.351420 -0.052457 3.045428 38 71 27
-0.345892 -0.050402 3.043592 31 61 20
-0.429548 -0.060113 3.047839 29 51 34
-0.420070 -0.064318 3.048649 15 30 19
-0.407929 -0.068116 3.047349 11 17 10
-0.402504 -0.066184 3.048181 40 61 35
-0.395264 -0.067426 3.044473 45 77 36
-0.383026 -0.065278 3.044830 31 57 35
-0.369770 -0.066758 3.046827 39 72 28
-0.360627 -0.065627 3.045135 34 58 28
-0.352288 -0.065764 3.044138 8 14 7
-0.403999 -0.075286 3.041834 29 54 30
-0.392153 -0.072915 3.045176 36 76 38
-0.383379 -0.075437 3.045526 35 58 34
-0.372099 -0.072102 3.043749 23 41 15
-0.364307 -0.073691 3.047307 13 20 10
-0.356490 -0.076909 3.049322 30 44 25
-0.343029 -0.076842 3.045360 48 74 37
-0.417519 -0.080960 3.043248 10 19 11
-0.404357 -0.085132 3.047995 24 45 27
-0.392298 -0.081768 3.044654 39 59 34
-0.380386 -0.083311 3.046013 26 47 16
-0.322038 -0.086261 3.042816 47 78 35
-0.316720 -0.088230 3.046383 45 78 34
-0.403333 -0.090215 3.042130 5 6 4
-0.392084 -0.096762 3.047086 21 33 18
-0.382819 -0.095833 3.045965 40 67 32
-0.381879 -0.115258 3.047866 17 25 15
-0.372749 -0.113684 3.047114 41 69 33
-0.296121 0.013929 3.056956 1 1 2
-0.281583 0.011710 3.054091 51 73 29
-0.272264 0.014780 3.054791 73 110 36
-0.256926 0.012520 3.057159 14 25 10
-0.441475 0.005036 3.056155 45 78 25
-0.422506 0.007301 3.054692 54 88 28
-0.412909 0.005140 3.055653 31 51 18
-0.404484 0.004843 3.053033 20 35 14
-0.388310 0.000763 3.052978 45 71 37
-0.385853 0.004946 3.057717 11 20 11
-0.373660 0.002816 3.054235 20 41 21
-0.362392 0.005715 3.052613 32 56 27
-0.341219 0.006893 3.058892 24 51 24
-0.332964 0.005908 3.054270 28 51 24
-0.289573 0.007749 3.054302 7 11 5
-0.276595 0.008848 3.056203 68 101 41
-0.441741 -0.008333 3.059033 37 71 43
-0.431167 -0.003173 3.056239 39 69 28
-0.423817 -0.004384 3.055179 37 61 25
-0.403946 -0.002241 3.056353 36 70 33
-0.390610 -0.005520 3.056231 33 63 32
-0.382665 -0.002168 3.055035 34 55 30
-0.377814 -0.000201 3.052108 37 56 31
-0.363145 -0.005764 3.054443 39 68 30
-0.352239 -0.006587 3.054346 10 19 11
-0.335847 -0.009021 3.057679 18 36 21
-0.300850 -0.002547 3.059199 2 3 2
-0.253669 -0.009147 3.054343 57 85 32
-0.460594 -0.013736 3.053945 54 95 37
-0.431787 -0.012711 3.054022 30 52 23
-0.424623 -0.010280 3.053874 37 56 28
-0.413256 -0.011506 3.055158 44 76 17
-0.402368 -0.015540 3.052841 27 50 19
-0.396919 -0.013420 3.059369 37 67 28
-0.383005 -0.013551 3.054771 36 66 28
-0.371565 -0.014621 3.055009 21 39 17
-0.363903 -0.012298 3.057190 24 44 20
-0.351715 -0.015318 3.054520 31 56 27
-0.343499 -0.015824 3.054283 26 46 24
-0.333340 -0.014111 3.054239 24 40 24
-0.325633 -0.015884 3.055932 7 13 9
-0.313556 -0.009896 3.055222 18 27 18
-0.301950 -0.013827 3.059145 42 70 40
-0.295318 -0.016349 3.056745 16 29 15
-0.283655 -0.015111 3.054761 27 43 24
-0.271276 -0.012977 3.054752 59 85 33
-0.262511 -0.011418 3.054792 73 111 34
-0.248069 -0.010377 3.055929 23 34 16
-0.243394 -0.012211 3.053265 28 42 17
-0.451493 -0.026010 3.057247 44 82 35
-0.430975 -0.022848 3.054959 5 10 5
-0.411977 -0.023685 3.054692 36 61 28
-0.400634 -0.027199 3.054764 33 63 28
-0.393977 -0.023007 3.054306 36 65 26
-0.380271 -0.026202 3.057490 37 87 39
-0.372059 -0.025410 3.054313 33 62 28
-0.363815 -0.023788 3.055605 39 70 32
-0.352686 -0.023547 3.055028 39 73 34
-0.340636 -0.024690 3.053197 31 48 26
-0.332226 -0.023642 3.053729 29 47 25
-0.323550 -0.022493 3.058351 28 47 20
-0.310563 -0.027881 3.058623 67 100 38
-0.303509 -0.028900 3.051098 68 99 35
-0.280617 -0.022585 3.055198 13 22 13
-0.268008 -0.023295 3.059675 16 24 15
-0.248577 -0.021108 3.053300 12 19 9
-0.442755 -0.033357 3.057213 11 21 11
-0.418262 -0.031355 3.056187 12 21 13
-0.412571 -0.034071 3.055356 24 40 21
-0.402457 -0.035150 3.057189 3 8 3
-0.392814 -0.034945 3.055825 22 40 22
-0.383580 -0.035006 3.054868 33 58 29
-0.373286 -0.033306 3.053762 36 64 28
-0.362792 -0.034508 3.055071 33 65 28
-0.353728 -0.032593 3.055878 33 61 31
-0.344487 -0.033380 3.057630 35 66 30
-0.333755 -0.032272 3.054709 17 26 14
-0.318507 -0.031016 3.055418 47 76 26
-0.313430 -0.033428 3.055864 69 102 35
-0.299863 -0.033371 3.053090 47 67 26
-0.293200 -0.033528 3.051838 10 15 7
-0.421424 -0.047057 3.055329 10 17 9
-0.415043 -0.043619 3.053565 40 61 25
-0.403158 -0.044480 3.054849 35 65 29
-0.392062 -0.041794 3.055814 19 37 22
-0.383648 -0.043496 3.054264 22 38 21
-0.373084 -0.044135 3.054629 34 68 31
-0.362818 -0.041987 3.055217 35 66 28
-0.355248 -0.044843 3.053502 38 74 31
-0.334777 -0.045746 3.054635 43 67 32
-0.319574 -0.048211 3.052985 18 27 16
-0.424708 -0.053301 3.053288 3 6 5
-0.411057 -0.054058 3.055105 38 75 39
-0.404412 -0.053880 3.052521 44 70 33
-0.392854 -0.053429 3.056604 39 73 36
-0.383267 -0.054182 3.056179 29 53 24
-0.371156 -0.055872 3.051327 35 64 29
-0.362170 -0.053805 3.053919 27 47 23
-0.355900 -0.054242 3.055849 40 76 30
-0.343734 -0.054420 3.055282 27 51 18
-0.331520 -0.055837 3.051805 31 60 19
-0.436689 -0.069057 3.054856 8 14 10
-0.419836 -0.064270 3.059961 23 48 29
-0.403304 -0.066933 3.056107 19 30 16
-0.391442 -0.065878 3.058073 40 59 37
-0.385433 -0.064662 3.055267 26 50 27
-0.371047 -0.068815 3.056488 39 72 29
-0.364055 -0.064467 3.055624 39 67 33
-0.351910 -0.065126 3.054956 20 35 16
-0.331203 -0.064966 3.057159 33 64 20
-0.408435 -0.069697 3.055562 22 30 18
-0.405113 -0.075707 3.052888 32 62 33
-0.393187 -0.072924 3.054688 38 71 35
-0.383089 -0.074399 3.051976 32 60 40
-0.374584 -0.073845 3.055604 31 54 21
-0.354385 -0.075228 3.053794 33 52 28
-0.332904 -0.073764 3.056967 40 74 27
-0.420235 -0.083371 3.056735 8 16 8
-0.402126 -0.084953 3.055321 21 33 19
-0.381245 -0.083039 3.056260 36 64 23
-0.371886 -0.087936 3.057819 41 75 24
-0.347903 -0.079836 3.057641 46 76 36
-0.412940 -0.092952 3.052080 7 13 9
-0.384487 -0.097847 3.054257 38 65 31
-0.394201 -0.099988 3.056219 19 30 16
-0.383358 -0.118017 3.056893 17 25 16
-0.374290 -0.116710 3.056329 40 68 32
-0.282740 0.012352 3.064327 52 75 30
-0.421675 0.004289 3.066061 40 65 19
-0.402779 0.007939 3.063139 31 50 22
-0.396604 0.002979 3.060362 35 74 40
-0.385503 0.004655 3.067825 10 17 10
-0.371444 0.001100 3.062669 3 6 3
-0.361481 0.002541 3.063630 13 25 13
-0.341306 0.006099 3.067302 29 56 30
-0.332533 0.005848 3.063311 34 52 29
-0.326369 0.009198 3.068400 9 13 8
-0.290318 0.009174 3.063958 7 13 5
-0.278039 0.008813 3.066678 70 103 40
-0.440541 -0.008660 3.069103 29 51 23
-0.431231 -0.004068 3.064048 30 49 24
-0.425384 -0.002841 3.064391 36 56 23
-0.416596 -0.005999 3.066663 55 85 28
-0.405860 -0.001639 3.064751 42 75 29
-0.390577 -0.001737 3.066254 14 30 17
-0.382703 -0.002249 3.064202 28 49 25
-0.364752 -0.006431 3.065032 39 67 31
-0.354960 -0.007402 3.064330 27 49 22
-0.343676 -0.006795 3.064049 30 62 28
-0.302939 -0.004664 3.067889 3 5 2
-0.286918 -0.002672 3.064398 30 45 19
-0.261275 -0.009132 3.067611 71 105 31
-0.252139 -0.008463 3.064758 40 58 26
-0.452546 -0.013845 3.062864 47 90 38
-0.440329 -0.013994 3.063099 18 32 16
-0.432839 -0.015069 3.065443 26 46 20
-0.419939 -0.009721 3.064601 45 75 21
-0.411925 -0.013978 3.065650 31 51 16
-0.404383 -0.013986 3.063763 28 54 27
-0.391978 -0.013377 3.066008 37 69 28
-0.383852 -0.014043 3.064499 35 64 27
-0.371527 -0.011702 3.063495 42 71 33
-0.362084 -0.014876 3.065836 27 55 22
-0.352019 -0.015630 3.065095 26 47 25
-0.344331 -0.015379 3.063788 28 51 24
-0.334289 -0.012806 3.064336 19 34 19
-0.322249 -0.017303 3.063104 6 12 6
-0.313062 -0.013701 3.065291 23 34 21
-0.301680 -0.017081 3.068776 43 67 40
-0.292507 -0.016470 3.066413 22 35 21
-0.281917 -0.017651 3.065363 19 29 14
-0.272810 -0.014272 3.066152 59 82 28
-0.264683 -0.011134 3.063819 75 110 35
-0.243161 -0.013650 3.062422 1 2 2
-0.469233 -0.027323 3.062990 54 95 36
-0.440903 -0.027507 3.069956 5 10 5
-0.436985 -0.022177 3.062852 23 35 20
-0.411408 -0.023927 3.065309 42 70 26
-0.402839 -0.024141 3.066324 29 51 22
-0.392789 -0.022921 3.063144 43 77 32
-0.379048 -0.027054 3.065809 39 86 40
-0.371108 -0.024389 3.065384 31 61 30
-0.362044 -0.025185 3.064375 41 75 34
-0.352230 -0.025058 3.064425 39 70 31
-0.342148 -0.024477 3.066755 24 40 22
-0.332333 -0.025612 3.064475 27 45 24
-0.321087 -0.021434 3.066894 36 61 24
-0.298540 -0.021549 3.067242 1 3 2
-0.282347 -0.024604 3.063843 5 7 4
-0.274278 -0.022550 3.065959 33 52 31
-0.248940 -0.025769 3.063569 12 19 9
-0.418694 -0.032160 3.065131 36 56 24
-0.414238 -0.034684 3.064391 38 56 25
-0.403071 -0.032816 3.064068 23 40 19
-0.392369 -0.034038 3.064573 30 55 26
-0.382105 -0.034954 3.064941 37 68 30
-0.373632 -0.034874 3.065236 34 62 30
-0.363507 -0.033193 3.064366 34 66 30
-0.353919 -0.033138 3.064222 32 60 26
-0.345068 -0.034149 3.065522 35 68 34
-0.336262 -0.031808 3.067157 28 47 28
-0.324090 -0.032498 3.062451 29 49 20
-0.311820 -0.033103 3.068768 66 98 39
-0.304767 -0.034113 3.061251 58 83 31
-0.297773 -0.038619 3.062585 10 15 7
-0.425740 -0.047981 3.067247 17 24 11
-0.415690 -0.043313 3.060062 52 79 24
-0.399994 -0.044788 3.065155 29 62 29
-0.391909 -0.043249 3.065370 18 34 20
-0.384197 -0.044273 3.065081 28 48 25
-0.372561 -0.044805 3.064591 35 68 31
-0.362811 -0.043453 3.065697 35 68 29
-0.355421 -0.044578 3.064932 34 67 32
-0.341695 -0.044622 3.066311 26 40 22
-0.335502 -0.044875 3.064557 40 60 30
-0.424661 -0.054365 3.062468 15 30 16
-0.412493 -0.054625 3.064475 35 67 37
-0.407194 -0.053398 3.065111 34 80 43
-0.392072 -0.055336 3.067054 38 71 34
-0.382114 -0.055131 3.062432 39 69 31
-0.375415 -0.055904 3.063672 20 36 17
-0.361222 -0.054293 3.063426 38 72 28
-0.341781 -0.052508 3.065880 38 59 27
-0.335371 -0.054972 3.065124 32 60 21
-0.429725 -0.062697 3.063700 33 64 39
-0.403336 -0.062423 3.064820 28 45 24
-0.387507 -0.063910 3.064690 35 66 36
-0.370635 -0.064970 3.066222 37 66 28
-0.362592 -0.064525 3.064698 40 72 32
-0.355042 -0.063764 3.063492 26 52 23
-0.334653 -0.065805 3.065595 32 64 20
-0.437141 -0.070312 3.069212 15 28 18
-0.423925 -0.071008 3.060050 5 12 6
-0.411482 -0.072853 3.063823 17 22 14
-0.404492 -0.074692 3.065836 41 70 36
-0.393014 -0.072332 3.064650 25 45 20
-0.386719 -0.072470 3.064248 35 72 43
-0.377458 -0.074868 3.066490 43 77 29
-0.366156 -0.077839 3.061121 15 24 12
-0.357225 -0.076142 3.065131 26 37 22
-0.334889 -0.072111 3.064924 38 73 27
-0.422542 -0.085278 3.069584 13 27 13
-0.411343 -0.086587 3.068215 7 11 8
-0.400012 -0.084778 3.062649 38 79 44
-0.383648 -0.083265 3.066053 33 62 28
-0.374168 -0.082905 3.063416 40 74 24
-0.358959 -0.080753 3.063514 31 48 26
-0.354426 -0.082338 3.067526 44 70 36
-0.345156 -0.080195 3.066117 45 80 34
-0.412478 -0.094757 3.064713 16 31 19
-0.406142 -0.089971 3.063909 34 66 39
-0.383823 -0.094414 3.064650 20 38 16
-0.323684 -0.089864 3.063317 45 81 36
-0.392770 -0.101673 3.064112 28 44 24
-0.372582 -0.118234 3.064598 39 70 33
-0.382080 -0.121572 3.066582 27 44 25
-0.409960 0.003759 3.075711 20 31 11
-0.396793 0.004774 3.071677 34 70 38
-0.383307 0.001710 3.077555 5 8 6
-0.342549 0.005462 3.075393 30 52 29
-0.331101 0.003101 3.075221 20 33 20
-0.326653 0.006088 3.076515 4 6 4
-0.278914 0.009019 3.073495 71 105 38
-0.438876 -0.005835 3.074887 31 54 20
-0.431812 -0.003893 3.076410 27 44 22
-0.423174 -0.004396 3.074252 44 71 20
-0.412770 -0.006879 3.073965 40 69 34
-0.394317 -0.004987 3.074733 12 27 14
-0.385694 -0.005300 3.073967 34 55 29
-0.357292 -0.005820 3.075845 18 31 14
-0.340627 -0.005406 3.071345 30 60 28
-0.333416 -0.001245 3.075344 29 44 25
-0.302427 -0.000832 3.075746 7 12 5
-0.287900 -0.001488 3.074015 32 47 22
-0.262156 -0.008615 3.074258 69 103 29
-0.254595 -0.006415 3.076071 44 64 27
-0.245031 -0.009170 3.076855 1 2 2
-0.459138 -0.013529 3.075805 52 98 38
-0.452043 -0.016471 3.076608 42 78 35
-0.439754 -0.009644 3.071953 22 41 25
-0.433479 -0.014779 3.076007 30 50 23
-0.412535 -0.014537 3.073810 22 35 14
-0.400710 -0.018518 3.073297 20 39 16
-0.391412 -0.013579 3.075147 38 68 30
-0.383967 -0.014116 3.076055 37 66 29
-0.373548 -0.011254 3.072650 34 58 30
-0.363268 -0.016318 3.074532 24 45 19
-0.351673 -0.015606 3.074761 22 39 20
-0.344532 -0.016048 3.073643 24 45 23
-0.334851 -0.013451 3.074214 19 32 18
-0.312890 -0.016693 3.074711 27 42 24
-0.299424 -0.018848 3.079265 2 4 3
-0.288695 -0.019266 3.075190 33 50 30
-0.280233 -0.017148 3.077885 14 20 7
-0.271037 -0.011351 3.075023 64 93 28
-0.244173 -0.009937 3.070381 1 2 2
-0.469834 -0.027020 3.074672 57 103 36
-0.462542 -0.025481 3.073781 51 99 36
-0.442942 -0.024114 3.077532 11 23 12
-0.437097 -0.023277 3.074227 33 53 30
-0.418284 -0.026794 3.077394 49 77 21
-0.415349 -0.026665 3.071623 35 63 28
-0.404157 -0.023095 3.076771 30 56 23
-0.392509 -0.027009 3.073105 34 58 25
-0.377921 -0.027833 3.074220 38 84 38
-0.372029 -0.024260 3.075637 25 47 26
-0.363723 -0.026131 3.074069 37 73 37
-0.353577 -0.025068 3.074753 41 72 33
-0.343914 -0.022177 3.075707 28 47 23
-0.330672 -0.025865 3.072321 28 44 26
-0.324651 -0.022312 3.075001 13 22 12
-0.300346 -0.020832 3.076222 21 32 19
-0.293906 -0.020682 3.074510 20 33 19
-0.283809 -0.022171 3.072205 22 36 20
-0.453081 -0.032107 3.072787 31 57 28
-0.419586 -0.032738 3.074098 33 51 25
-0.413588 -0.036805 3.074825 19 30 18
-0.403824 -0.033445 3.074888 27 48 23
-0.390607 -0.035525 3.074776 31 59 30
-0.382418 -0.034264 3.074904 25 50 23
-0.372586 -0.035373 3.074117 33 60 30
-0.362311 -0.034280 3.075033 39 74 32
-0.353639 -0.033333 3.075191 34 66 31
-0.345014 -0.032859 3.074633 28 47 24
-0.334238 -0.034775 3.077674 29 53 33
-0.323620 -0.035517 3.072609 40 71 23
-0.314752 -0.035881 3.077749 62 94 36
-0.305844 -0.039057 3.071189 47 67 25
-0.271787 -0.029427 3.078171 16 24 15
-0.249267 -0.030694 3.074016 12 21 9
-0.426045 -0.043374 3.074627 28 40 19
-0.401029 -0.043769 3.073575 14 28 18
-0.392671 -0.043158 3.075613 21 36 20
-0.383594 -0.043186 3.075009 28 50 25
-0.373151 -0.042412 3.076005 32 61 31
-0.363781 -0.043948 3.075681 34 65 27
-0.353861 -0.044608 3.077135 37 71 38
-0.341307 -0.044725 3.077219 41 66 30
-0.333010 -0.043377 3.074664 25 40 23
-0.301433 -0.042410 3.072340 10 15 7
-0.422222 -0.053189 3.072546 14 24 12
-0.414000 -0.054092 3.077619 37 61 31
-0.405152 -0.052078 3.073910 37 76 36
-0.391997 -0.053636 3.076327 27 50 23
-0.381898 -0.052220 3.074669 31 59 26
-0.372269 -0.053459 3.073958 33 67 30
-0.362046 -0.054026 3.076260 28 54 27
-0.357817 -0.058240 3.075893 43 79 40
-0.343971 -0.051797 3.075275 34 53 27
-0.333859 -0.054614 3.075468 31 55 22
-0.429883 -0.065379 3.079662 33 72 40
-0.420024 -0.062841 3.075169 31 70 38
-0.412065 -0.059496 3.075283 33 78 44
-0.403042 -0.063732 3.074658 28 44 23
-0.388960 -0.063826 3.074452 41 71 36
-0.382018 -0.062720 3.074458 35 65 26
-0.373504 -0.063686 3.075237 35 66 31
-0.362766 -0.065760 3.074062 39 72 32
-0.356225 -0.063360 3.073241 34 63 27
-0.338567 -0.063202 3.074704 29 61 19
-0.423933 -0.070814 3.071062 13 28 15
-0.413539 -0.073534 3.073270 18 27 15
-0.404206 -0.076439 3.075654 39 71 35
-0.391100 -0.070997 3.076751 26 47 27
-0.378328 -0.076220 3.074391 42 76 28
-0.373184 -0.070127 3.076223 37 71 30
-0.366762 -0.069890 3.071940 43 67 35
-0.339725 -0.075466 3.073785 44 77 33
-0.336179 -0.070804 3.072458 37 71 27
-0.421729 -0.083325 3.077691 24 44 25
-0.410530 -0.084002 3.073115 15 23 14
-0.399699 -0.086316 3.074964 36 80 41
-0.391272 -0.084621 3.073929 24 52 28
-0.385651 -0.080690 3.074428 37 68 32
-0.371232 -0.080707 3.073497 11 17 10
-0.359919 -0.085341 3.076778 34 52 31
-0.353847 -0.081663 3.073371 35 56 29
-0.347795 -0.084294 3.077026 46 80 39
-0.412146 -0.096308 3.077045 24 47 27
-0.406203 -0.090766 3.075388 35 74 40
-0.329894 -0.091862 3.079765 46 80 35
-0.418414 -0.101208 3.077982 5 10 5
-0.398195 -0.105811 3.074013 16 24 13
-0.391034 -0.102539 3.071425 37 61 31
-0.383460 -0.102621 3.073357 38 68 29
-0.383714 -0.125053 3.076094 26 44 25
-0.374290 -0.122026 3.074331 40 70 34
-0.344561 0.003891 3.089077 37 73 38
-0.326982 0.002672 3.084455 3 4 2
-0.259829 0.008591 3.084260 14 25 10
-0.441568 -0.004111 3.084334 35 60 24
-0.431731 -0.003957 3.085008 27 42 17
-0.420249 -0.004420 3.084273 43 67 23
-0.410191 -0.006373 3.086341 35 70 41
-0.404518 -0.002893 3.085437 2 5 3
-0.391960 -0.004912 3.084256 4 9 6
-0.383301 -0.006477 3.085698 17 28 15
-0.351560 -0.008510 3.080944 2 3 2
-0.340489 -0.003452 3.084677 31 56 29
-0.334082 -0.004376 3.084765 24 42 24
-0.327709 -0.003003 3.087813 3 4 2
-0.304588 -0.002145 3.087384 15 25 12
-0.288818 -0.000138 3.083507 33 51 20
-0.263475 -0.007834 3.084218 68 101 31
-0.253737 -0.004554 3.084373 31 47 21
-0.246268 -0.007549 3.086237 1 2 1
-0.467107 -0.009907 3.086099 52 96 40
-0.453404 -0.016638 3.087463 29 52 24
-0.440150 -0.011147 3.084250 33 59 40
-0.432325 -0.013615 3.084702 43 74 25
-0.421734 -0.013690 3.085713 45 73 20
-0.414674 -0.013755 3.083987 21 35 14
-0.402409 -0.015336 3.085532 30 59 26
-0.392721 -0.016009 3.084339 39 69 31
-0.385970 -0.012312 3.085824 40 65 32
-0.368466 -0.017960 3.089567 6 12 8
-0.358696 -0.019265 3.083758 33 61 22
-0.351357 -0.016393 3.083690 20 38 20
-0.342694 -0.015579 3.083894 30 57 29
-0.333161 -0.013089 3.085741 18 32 18
-0.316579 -0.019239 3.085852 17 33 16
-0.299476 -0.015181 3.087148 2 4 3
-0.281299 -0.014013 3.086227 13 20 7
-0.272389 -0.010925 3.085222 61 90 27
-0.439800 -0.026037 3.084720 27 46 25
-0.419514 -0.022135 3.085353 45 74 23
-0.411015 -0.026240 3.084297 28 53 21
-0.401483 -0.023565 3.085977 34 67 27
-0.393355 -0.023322 3.082791 32 58 27
-0.384974 -0.021951 3.083834 23 41 18
-0.371324 -0.024248 3.086961 28 48 27
-0.363168 -0.025298 3.084212 38 72 32
-0.353378 -0.025001 3.085246 36 62 32
-0.345145 -0.022259 3.084613 19 33 15
-0.332752 -0.023273 3.084481 17 27 15
-0.325556 -0.028031 3.086313 33 59 23
-0.308916 -0.019981 3.082276 38 61 35
-0.301118 -0.023636 3.088045 33 52 31
-0.291766 -0.022857 3.084359 25 38 23
-0.279416 -0.026639 3.080748 40 59 37
-0.438034 -0.030227 3.086332 1 1 3
-0.420869 -0.034818 3.083871 30 47 26
-0.409173 -0.037000 3.083794 20 33 19
-0.401546 -0.031449 3.085555 25 44 21
-0.392833 -0.035056 3.083562 28 53 26
-0.382443 -0.036799 3.083476 27 51 24
-0.373390 -0.036260 3.085801 35 62 29
-0.363478 -0.034338 3.085201 41 74 31
-0.353499 -0.033086 3.084277 34 63 29
-0.343349 -0.034707 3.085154 31 54 28
-0.331878 -0.031761 3.085825 32 54 33
-0.322817 -0.035214 3.083426 39 71 24
-0.276863 -0.030806 3.088253 30 45 31
-0.453524 -0.043057 3.080955 6 11 6
-0.426782 -0.040717 3.083368 37 54 23
-0.412748 -0.040197 3.088190 22 37 21
-0.400298 -0.045929 3.083706 23 45 23
-0.393028 -0.045523 3.085089 27 46 27
-0.382964 -0.044249 3.085628 29 52 25
-0.369571 -0.044468 3.085704 36 67 34
-0.363060 -0.043624 3.086027 35 68 32
-0.353766 -0.045593 3.084369 37 75 36
-0.341428 -0.042743 3.085845 33 58 31
-0.332736 -0.040630 3.085196 12 20 12
-0.312556 -0.043062 3.086128 51 73 27
-0.304218 -0.044953 3.081144 9 14 6
-0.435288 -0.058743 3.085166 2 3 1
-0.425350 -0.055763 3.083069 13 24 12
-0.412482 -0.057207 3.087315 41 67 31
-0.401538 -0.055636 3.085386 42 74 29
-0.392047 -0.054033 3.085845 15 28 13
-0.383648 -0.053047 3.085406 26 52 27
-0.373381 -0.054855 3.084798 29 53 24
-0.363485 -0.052335 3.084924 37 75 32
-0.355242 -0.054738 3.085102 28 55 32
-0.345461 -0.054592 3.087377 42 69 32
-0.331709 -0.056929 3.082905 28 49 21
-0.413867 -0.062820 3.086622 35 75 43
-0.399695 -0.064934 3.081753 28 50 21
-0.392882 -0.062245 3.082994 41 73 35
-0.382562 -0.064494 3.085796 24 47 20
-0.372809 -0.067118 3.084779 37 68 31
-0.362109 -0.065587 3.085353 39 75 32
-0.355630 -0.066762 3.085288 19 34 15
-0.338568 -0.066592 3.083163 33 64 23
-0.336386 -0.062951 3.086886 30 59 19
-0.437553 -0.071750 3.083785 22 42 26
-0.424992 -0.074561 3.083283 14 30 17
-0.411626 -0.075057 3.084380 26 45 26
-0.407271 -0.075515 3.084198 28 63 32
-0.392931 -0.074458 3.088016 29 55 31
-0.365529 -0.071731 3.087258 41 76 35
-0.339938 -0.074356 3.084035 41 73 29
-0.419597 -0.079741 3.083802 34 61 36
-0.415073 -0.080813 3.089729 18 30 16
-0.400902 -0.084157 3.087132 38 77 37
-0.390255 -0.083334 3.081960 30 56 35
-0.384695 -0.083235 3.085055 44 78 28
-0.373261 -0.085089 3.084017 6 11 5
-0.367429 -0.087327 3.087236 19 33 17
-0.354621 -0.085863 3.083146 38 61 32
-0.342648 -0.081679 3.083463 44 80 35
-0.411872 -0.097743 3.089231 30 60 33
-0.405875 -0.092321 3.087708 35 77 40
-0.390015 -0.096171 3.087558 3 7 5
-0.400154 -0.108631 3.082829 13 20 10
-0.392146 -0.106737 3.085668 35 61 28
-0.381771 -0.107006 3.080770 41 71 30
-0.382581 -0.129269 3.086222 38 64 36
-0.375889 -0.123262 3.085807 39 69 34
-0.389256 -0.133152 3.088694 15 25 14
-0.303845 0.002130 3.094904 22 40 18
-0.443497 -0.002245 3.094429 38 67 28
-0.434532 -0.004240 3.093641 27 43 17
-0.422389 -0.001988 3.094356 40 59 22
-0.415283 -0.006191 3.094448 25 41 12
-0.407699 -0.005802 3.091569 3 7 4
-0.384312 -0.007238 3.095009 15 25 15
-0.361030 -0.002875 3.095130 14 21 14
-0.357814 -0.001059 3.095702 40 61 39
-0.341804 -0.006325 3.096688 24 50 27
-0.298826 -0.007091 3.098929 4 7 3
-0.290045 0.000385 3.093559 38 57 22
-0.260920 -0.003582 3.094621 56 84 31
-0.253305 -0.002274 3.095877 18 28 13
-0.247537 -0.006240 3.095826 1 2 1
-0.461445 -0.017163 3.091258 48 87 39
-0.452348 -0.014739 3.095208 22 40 17
-0.443883 -0.013415 3.096262 20 36 21
-0.433270 -0.015071 3.092672 43 74 23
-0.423160 -0.014538 3.095954 47 71 22
-0.410971 -0.015165 3.094209 26 54 28
-0.402010 -0.017588 3.095599 36 70 34
-0.391642 -0.017537 3.094792 37 64 32
-0.385233 -0.013364 3.096071 35 55 31
-0.352512 -0.016589 3.093681 17 31 15
-0.340228 -0.016352 3.094672 27 47 26
-0.335488 -0.015515 3.095219 23 37 22
-0.324549 -0.012302 3.094088 7 13 9
-0.299587 -0.011674 3.095138 3 5 3
-0.282831 -0.015377 3.097637 13 20 7
-0.273788 -0.010959 3.095727 59 88 27
-0.471748 -0.028457 3.091689 52 103 31
-0.451557 -0.024865 3.095589 14 27 13
-0.440325 -0.025544 3.094314 23 40 20
-0.433907 -0.022602 3.098438 34 58 24
-0.422873 -0.023980 3.095945 46 74 26
-0.413960 -0.024033 3.095069 20 33 13
-0.402338 -0.027534 3.094930 30 53 24
-0.395210 -0.021285 3.094614 47 83 33
-0.385234 -0.023730 3.095824 40 71 32
-0.372789 -0.019858 3.095810 18 32 21
-0.362117 -0.027711 3.094433 36 67 30
-0.352760 -0.024949 3.095431 29 53 28
-0.343984 -0.022835 3.094027 27 46 23
-0.336370 -0.025758 3.097632 21 41 24
-0.322803 -0.026809 3.093494 15 24 13
-0.313777 -0.023362 3.094570 20 36 20
-0.300970 -0.026574 3.097401 26 43 26
-0.294531 -0.024777 3.094048 17 26 15
-0.285521 -0.028497 3.091544 42 65 39
-0.463058 -0.035806 3.091689 34 67 27
-0.446937 -0.033218 3.097976 6 14 7
-0.422760 -0.034807 3.094096 38 62 29
-0.409411 -0.032571 3.093216 36 65 29
-0.402270 -0.032379 3.095230 32 59 27
-0.392807 -0.034507 3.095391 34 65 29
-0.381407 -0.037495 3.095145 27 52 27
-0.371618 -0.032625 3.094308 38 72 35
-0.362908 -0.033882 3.094962 41 74 34
-0.353644 -0.034148 3.095285 33 59 27
-0.344430 -0.034392 3.097025 30 53 27
-0.331839 -0.029999 3.092266 23 38 23
-0.282973 -0.032662 3.099041 39 60 39
-0.275247 -0.035401 3.096402 15 22 15
-0.457384 -0.046076 3.095630 3 6 4
-0.422023 -0.043631 3.095759 8 16 9
-0.412296 -0.040850 3.095852 27 48 27
-0.399573 -0.046621 3.094614 31 60 31
-0.392198 -0.044929 3.095868 34 60 30
-0.381632 -0.044454 3.094289 32 58 29
-0.372554 -0.043351 3.094894 38 65 31
-0.363984 -0.044783 3.095107 37 68 31
-0.353252 -0.043384 3.095289 39 76 34
-0.344126 -0.044335 3.094729 35 60 29
-0.333719 -0.040983 3.095755 24 47 30
-0.321505 -0.042721 3.096625 51 80 28
-0.315563 -0.048682 3.099044 43 62 22
-0.307846 -0.048705 3.090836 9 15 6
-0.436673 -0.057048 3.098082 10 14 7
-0.424384 -0.058166 3.092117 22 38 19
-0.409563 -0.051100 3.093648 4 11 4
-0.401713 -0.055032 3.094827 20 42 22
-0.391740 -0.052601 3.095272 18 30 17
-0.382020 -0.052500 3.096240 32 57 30
-0.371956 -0.053795 3.097274 31 56 27
-0.361469 -0.052297 3.094706 40 75 35
-0.353426 -0.053402 3.094395 34 67 33
-0.345298 -0.052921 3.095592 39 62 30
-0.329062 -0.059160 3.093413 27 42 22
-0.310808 -0.051509 3.099804 8 14 5
-0.432234 -0.063258 3.095567 14 29 15
-0.421937 -0.063785 3.093868 32 74 36
-0.414536 -0.065147 3.095937 36 68 38
-0.402208 -0.064031 3.096514 42 74 28
-0.394529 -0.063367 3.094242 38 74 36
-0.383617 -0.064715 3.092607 34 65 28
-0.373089 -0.066141 3.094752 36 69 31
-0.362392 -0.064021 3.094380 33 61 27
-0.351924 -0.062483 3.096416 26 51 26
-0.333307 -0.065726 3.093761 31 57 21
-0.437773 -0.074123 3.099399 28 54 33
-0.424369 -0.074732 3.095020 21 45 27
-0.411910 -0.073308 3.093800 16 22 15
-0.404285 -0.075139 3.094619 40 59 31
-0.394802 -0.075395 3.095957 30 55 30
-0.379958 -0.071506 3.092647 17 35 21
-0.373809 -0.070654 3.095515 36 67 32
-0.360966 -0.074110 3.094858 35 65 28
-0.355687 -0.070106 3.093530 44 93 41
-0.335511 -0.072965 3.096256 34 65 23
-0.432853 -0.084202 3.094182 13 25 14
-0.421220 -0.083464 3.096426 3 5 5
-0.411856 -0.083389 3.096351 34 55 29
-0.392818 -0.086236 3.091751 31 59 37
-0.376273 -0.088633 3.098483 8 13 8
-0.353105 -0.086971 3.091477 34 56 27
-0.339530 -0.082844 3.096068 43 76 31
-0.337182 -0.080468 3.098434 41 74 29
-0.402385 -0.091487 3.099614 34 79 40
-0.393091 -0.094615 3.095018 10 22 13
-0.361024 -0.089852 3.090116 35 57 30
-0.353182 -0.092755 3.095508 47 78 39
-0.345600 -0.089785 3.095132 48 81 36
-0.327222 -0.098273 3.090863 47 81 35
-0.417807 -0.103279 3.090885 11 21 12
-0.389932 -0.108141 3.095567 37 67 27
-0.382913 -0.105234 3.093246 39 70 29
-0.402113 -0.111453 3.091633 11 20 10
-0.396976 -0.111134 3.097944 33 56 26
-0.376890 -0.121724 3.095338 40 70 35
-0.393109 -0.133397 3.095812 8 13 8
-0.384360 -0.133435 3.096186 38 64 35
-0.291273 0.000896 3.103604 38 57 24
-0.433358 -0.004097 3.104105 32 54 16
-0.362338 -0.003347 3.104545 40 62 36
-0.351544 -0.002658 3.107689 32 59 33
-0.341907 -0.007621 3.105149 22 45 25
-0.299840 -0.007286 3.105984 4 8 3
-0.272544 -0.008633 3.108469 65 98 26
-0.264130 -0.004113 3.104048 58 88 28
-0.254506 -0.000361 3.105048 15 25 10
-0.469544 -0.013853 3.101876 51 95 42
-0.467005 -0.018604 3.100945 52 97 33
-0.452318 -0.013483 3.102673 24 42 22
-0.443074 -0.012846 3.105276 20 34 21
-0.431802 -0.013835 3.102279 46 78 18
-0.423245 -0.013930 3.105204 39 61 19
-0.415205 -0.013040 3.102196 8 16 7
-0.403500 -0.017217 3.107160 35 68 36
-0.389464 -0.018112 3.108445 19 31 16
-0.384330 -0.012494 3.103730 21 34 19
-0.368630 -0.009426 3.107995 32 49 33
-0.359024 -0.013189 3.108501 5 10 6
-0.353503 -0.015308 3.104252 10 21 11
-0.344067 -0.015756 3.105948 24 50 26
-0.334891 -0.015985 3.106518 16 24 14
-0.281050 -0.012389 3.106433 31 47 15
-0.274675 -0.010550 3.102429 58 86 25
-0.463653 -0.020575 3.106460 37 68 34
-0.456367 -0.024131 3.107654 11 21 12
-0.441447 -0.026881 3.106074 36 66 29
-0.433119 -0.022974 3.106102 44 61 27
-0.422300 -0.022856 3.100932 36 68 24
-0.412242 -0.022770 3.105312 31 58 26
-0.403028 -0.025841 3.105999 42 76 36
-0.393493 -0.023814 3.105796 35 63 29
-0.382286 -0.025615 3.103135 41 73 34
-0.370770 -0.026616 3.105413 39 64 35
-0.358649 -0.026805 3.100430 37 62 28
-0.353705 -0.025238 3.105727 24 40 22
-0.343624 -0.024230 3.104967 31 52 29
-0.308250 -0.026769 3.101708 34 58 35
-0.297140 -0.026613 3.103436 26 37 23
-0.471824 -0.038349 3.108990 41 79 31
-0.443801 -0.035679 3.105467 8 16 8
-0.423886 -0.037812 3.103987 34 61 31
-0.413738 -0.031845 3.105680 33 64 24
-0.403960 -0.034478 3.106687 24 43 21
-0.393270 -0.036371 3.104503 5 12 7
-0.379676 -0.038440 3.102846 37 62 30
-0.372161 -0.035096 3.106131 38 72 33
-0.362984 -0.034550 3.104909 39 75 33
-0.354264 -0.033397 3.105904 41 71 35
-0.344247 -0.032364 3.105495 21 37 20
-0.332301 -0.034225 3.105798 20 36 21
-0.289427 -0.032012 3.105427 41 66 38
-0.279960 -0.036610 3.106209 28 41 27
-0.428076 -0.042797 3.105788 24 37 24
-0.419356 -0.044801 3.106913 18 33 17
-0.413474 -0.040870 3.105985 34 59 33
-0.401664 -0.045970 3.105722 21 37 18
-0.392074 -0.042785 3.105159 29 55 26
-0.382365 -0.044605 3.103697 29 54 25
-0.373588 -0.044759 3.103796 38 68 31
-0.363426 -0.043835 3.104691 38 67 31
-0.352412 -0.044240 3.105063 36 72 34
-0.343748 -0.044257 3.103790 31 58 30
-0.332510 -0.045263 3.103577 1 3 1
-0.322968 -0.048226 3.106915 53 79 30
-0.437132 -0.053150 3.105931 20 31 16
-0.417196 -0.058944 3.103908 42 72 32
-0.403785 -0.053241 3.104952 21 42 23
-0.393545 -0.053440 3.104815 28 49 26
-0.381762 -0.053579 3.105000 32 53 30
-0.372573 -0.053741 3.104655 35 64 29
-0.362491 -0.054249 3.104847 34 68 34
-0.351868 -0.053271 3.104369 35 70 40
-0.347029 -0.057123 3.102818 45 77 28
-0.318280 -0.051146 3.107746 42 61 24
-0.314258 -0.055013 3.109281 8 14 5
-0.429659 -0.063350 3.106297 12 19 10
-0.423754 -0.060731 3.104725 35 56 28
-0.412335 -0.063438 3.104932 34 79 42
-0.401942 -0.063140 3.107349 34 65 28
-0.392997 -0.064429 3.104917 23 43 23
-0.381862 -0.062948 3.104982 33 62 27
-0.373324 -0.063290 3.106391 31 64 31
-0.363916 -0.062974 3.105676 30 58 29
-0.352920 -0.061779 3.103349 40 73 38
-0.346309 -0.059402 3.104935 37 80 40
-0.331852 -0.066406 3.103987 31 56 24
-0.425036 -0.075185 3.106093 29 58 36
-0.405649 -0.075405 3.105417 42 68 34
-0.395790 -0.074371 3.104747 35 64 33
-0.380971 -0.075124 3.104875 18 38 21
-0.373698 -0.074209 3.104077 37 66 33
-0.361866 -0.076634 3.105304 34 69 29
-0.357869 -0.073927 3.105402 43 81 30
-0.332813 -0.075551 3.103360 32 64 21
-0.444992 -0.082687 3.105978 7 15 10
-0.430415 -0.083206 3.104136 14 28 17
-0.421477 -0.085909 3.105268 7 9 7
-0.412015 -0.086208 3.105481 37 62 32
-0.394221 -0.085361 3.100988 34 70 42
-0.366576 -0.081042 3.101421 41 61 37
-0.334836 -0.083836 3.106735 38 72 28
-0.411749 -0.098885 3.101074 36 71 40
-0.400987 -0.090496 3.105282 43 76 33
-0.394874 -0.093584 3.103845 19 41 25
-0.369205 -0.091493 3.100959 23 35 19
-0.361473 -0.094685 3.103045 38 58 33
-0.356657 -0.093536 3.105281 32 51 28
-0.347128 -0.094427 3.105348 46 83 37
-0.417600 -0.104571 3.102896 21 40 24
-0.395602 -0.101771 3.106624 3 7 4
-0.384850 -0.107964 3.101979 39 70 29
-0.325730 -0.104095 3.102663 43 81 34
-0.402893 -0.114793 3.105237 16 30 14
-0.391936 -0.111061 3.104425 37 67 27
-0.377680 -0.121274 3.102087 41 70 35
-0.394412 -0.135374 3.104244 9 16 10
-0.385780 -0.133869 3.107075 40 65 37
-0.472083 -0.008467 3.117311 54 97 35
-0.432959 -0.005920 3.113389 25 39 13
-0.353363 -0.004538 3.112887 40 63 41
-0.340718 -0.005596 3.115191 19 34 20
-0.299974 -0.003841 3.114011 4 7 3
-0.273406 -0.007979 3.114996 64 96 27
-0.264225 -0.002268 3.112218 54 83 29
-0.255347 0.000545 3.111410 14 24 10
-0.472243 -0.018392 3.118269 48 86 42
-0.467735 -0.018515 3.112850 48 88 34
-0.452221 -0.013453 3.114938 13 22 11
-0.447233 -0.016637 3.116163 25 41 28
-0.428423 -0.016904 3.118815 45 69 21
-0.423526 -0.017568 3.113761 26 40 15
-0.412372 -0.013905 3.117413 22 47 28
-0.389903 -0.018766 3.115041 16 23 13
-0.384644 -0.014042 3.113342 14 26 12
-0.373777 -0.013400 3.114338 26 42 28
-0.361218 -0.009900 3.119208 44 69 34
-0.353157 -0.015054 3.114602 14 25 13
-0.347276 -0.016266 3.118041 29 59 31
-0.334807 -0.016231 3.112962 12 18 11
-0.283177 -0.013298 3.115064 26 39 12
-0.454795 -0.020077 3.113263 36 60 41
-0.439793 -0.025138 3.113683 37 71 26
-0.431126 -0.023540 3.114152 43 71 27
-0.411090 -0.025027 3.116102 42 77 35
-0.402016 -0.020203 3.115490 38 70 31
-0.393410 -0.024417 3.114194 37 65 30
-0.382263 -0.027051 3.115023 35 59 27
-0.370848 -0.027036 3.113801 24 43 21
-0.353586 -0.026255 3.115540 16 27 15
-0.343258 -0.025577 3.113663 14 25 14
-0.336408 -0.028140 3.116118 6 11 5
-0.300671 -0.027294 3.112421 14 21 12
-0.443212 -0.034115 3.114135 19 33 16
-0.421360 -0.036581 3.116694 35 65 30
-0.410599 -0.034390 3.115859 34 65 26
-0.403540 -0.033987 3.115605 27 49 24
-0.388977 -0.034721 3.111607 21 41 17
-0.380105 -0.038001 3.116644 34 59 30
-0.371659 -0.035139 3.113569 38 72 36
-0.362057 -0.033930 3.114841 40 73 34
-0.353543 -0.035151 3.114357 34 58 30
-0.345825 -0.036271 3.114241 27 48 27
-0.333822 -0.034960 3.115000 12 23 14
-0.323039 -0.030627 3.112307 10 15 9
-0.307960 -0.030050 3.111321 32 54 36
-0.294822 -0.033544 3.115698 40 62 35
-0.285229 -0.038077 3.116390 39 57 33
-0.468182 -0.045321 3.111790 18 34 15
-0.429778 -0.045809 3.115951 23 35 21
-0.413139 -0.042939 3.117098 25 43 22
-0.401488 -0.046338 3.113982 29 51 25
-0.392554 -0.044385 3.114884 36 65 29
-0.383586 -0.044658 3.115034 29 57 26
-0.374078 -0.043587 3.114053 37 72 33
-0.364187 -0.045083 3.114982 34 61 28
-0.351739 -0.045387 3.115636 36 68 34
-0.342767 -0.044524 3.114687 24 47 24
-0.335854 -0.044571 3.115506 18 35 20
-0.279087 -0.041535 3.114850 12 18 10
-0.463223 -0.051010 3.112866 2 3 3
-0.411531 -0.058199 3.116593 8 17 8
-0.402350 -0.056632 3.115622 24 46 27
-0.394441 -0.054138 3.114815 32 56 30
-0.384082 -0.054016 3.114579 30 55 28
-0.372329 -0.053142 3.115430 39 67 31
-0.363590 -0.054461 3.116076 32 61 29
-0.353755 -0.053456 3.113748 35 68 34
-0.346296 -0.049968 3.114121 49 77 35
-0.319397 -0.056129 3.117636 23 35 16
-0.429306 -0.064968 3.114612 19 30 16
-0.422746 -0.065178 3.113980 37 70 33
-0.414620 -0.060498 3.114315 39 76 33
-0.401922 -0.063130 3.116320 21 39 18
-0.393815 -0.063753 3.115203 24 41 23
-0.382814 -0.062879 3.115125 30 54 29
-0.374246 -0.067773 3.114259 31 65 31
-0.364201 -0.063957 3.115204 36 70 33
-0.356771 -0.061198 3.116110 36 72 49
-0.331345 -0.065659 3.113781 27 45 24
-0.437898 -0.076956 3.115529 32 65 37
-0.430012 -0.071633 3.112589 33 74 36
-0.411551 -0.074232 3.116032 4 7 3
-0.402702 -0.074889 3.113769 38 65 31
-0.391962 -0.075675 3.115890 23 45 24
-0.380391 -0.074897 3.114022 30 57 27
-0.372613 -0.076290 3.114378 31 57 27
-0.361043 -0.075907 3.114123 32 63 23
-0.333531 -0.074193 3.113886 29 59 21
-0.421524 -0.089108 3.114685 12 17 12
-0.412603 -0.085332 3.114528 25 42 23
-0.397990 -0.080690 3.118721 36 58 32
-0.393847 -0.085377 3.113887 25 52 29
-0.375578 -0.082250 3.117379 36 68 41
-0.363724 -0.083012 3.115953 42 85 38
-0.356140 -0.080199 3.116541 44 95 42
-0.330438 -0.085016 3.114212 34 67 24
-0.327540 -0.082577 3.119616 29 61 20
-0.409465 -0.089775 3.119806 42 78 35
-0.401953 -0.092206 3.114786 26 54 25
-0.396310 -0.092694 3.113035 30 59 37
-0.379759 -0.091933 3.113215 8 14 7
-0.370779 -0.095754 3.114547 21 34 19
-0.362492 -0.099228 3.116304 37 56 32
-0.352858 -0.096395 3.112956 35 60 29
-0.336305 -0.092059 3.113146 40 78 31
-0.414361 -0.103233 3.114219 32 66 36
-0.394272 -0.102402 3.116743 6 12 9
-0.356992 -0.101304 3.119737 48 71 40
-0.423398 -0.111229 3.116357 7 17 9
-0.403687 -0.116347 3.115363 19 34 15
-0.393709 -0.113372 3.112852 37 67 27
-0.379626 -0.124139 3.114657 41 70 34
-0.392444 -0.135686 3.111629 17 28 15
-0.386850 -0.132675 3.116821 38 63 35
-0.361926 -0.007850 3.123410 35 72 34
-0.355546 -0.004699 3.122940 31 63 33
-0.281102 -0.009179 3.129006 52 76 23
-0.271668 -0.005370 3.124043 61 92 26
-0.468169 -0.017945 3.124189 39 71 31
-0.454244 -0.011390 3.124014 14 27 14
-0.445424 -0.014923 3.127420 2 3 1
-0.432813 -0.016909 3.123625 45 66 26
-0.424195 -0.018453 3.125600 6 11 3
-0.416998 -0.013132 3.127943 13 31 18
-0.400248 -0.016188 3.120642 35 73 39
-0.393301 -0.017023 3.124589 28 44 25
-0.381427 -0.017081 3.125502 12 20 11
-0.361195 -0.010527 3.127243 39 63 42
-0.355169 -0.013371 3.129215 33 67 31
-0.346388 -0.014358 3.125582 26 54 29
-0.283322 -0.011984 3.123580 32 49 15
-0.466878 -0.026295 3.124114 25 45 23
-0.455556 -0.019711 3.123459 30 46 35
-0.428328 -0.027772 3.121247 36 70 24
-0.425717 -0.022443 3.124574 26 45 24
-0.412910 -0.026939 3.124218 40 74 32
-0.401499 -0.027679 3.125062 26 45 21
-0.391705 -0.022368 3.125978 30 49 25
-0.384005 -0.023270 3.124203 24 39 19
-0.371934 -0.026350 3.123334 21 37 17
-0.357982 -0.022055 3.124745 24 44 21
-0.353410 -0.024400 3.124848 11 17 10
-0.343590 -0.026608 3.124106 26 43 24
-0.304424 -0.028079 3.121550 5 9 4
-0.459808 -0.030324 3.125816 4 7 5
-0.444407 -0.032614 3.124894 31 51 24
-0.433262 -0.032104 3.127340 38 71 26
-0.419707 -0.032359 3.125554 37 69 28
-0.405665 -0.034654 3.127957 31 57 27
-0.393028 -0.031701 3.126011 37 66 29
-0.383740 -0.034132 3.123850 23 46 23
-0.373564 -0.036195 3.123886 36 60 29
-0.362612 -0.035279 3.125450 37 69 31
-0.355202 -0.033110 3.124940 33 56 30
-0.342087 -0.036653 3.122558 19 32 19
-0.334205 -0.036453 3.125599 16 25 16
-0.300414 -0.032507 3.121482 31 46 26
-0.474865 -0.045846 3.126345 22 43 18
-0.451337 -0.040432 3.127412 10 17 10
-0.428126 -0.043531 3.123740 36 60 32
-0.420673 -0.039903 3.127704 35 64 28
-0.412592 -0.043947 3.125099 29 49 26
-0.400633 -0.044600 3.124375 31 55 26
-0.393392 -0.045808 3.126065 39 77 34
-0.383468 -0.046162 3.124824 27 52 24
-0.372927 -0.043298 3.124408 39 74 34
-0.362537 -0.045042 3.124883 39 71 29
-0.352761 -0.044185 3.124832 36 66 34
-0.343420 -0.042955 3.126735 38 67 37
-0.335711 -0.045629 3.123555 18 40 23
-0.291140 -0.039838 3.127000 44 66 36
-0.283020 -0.042385 3.124095 23 34 21
-0.429642 -0.049338 3.123731 15 26 14
-0.422703 -0.050867 3.124301 13 23 13
-0.411568 -0.058683 3.129367 15 33 20
-0.401976 -0.054638 3.125646 34 58 32
-0.392319 -0.054440 3.125324 32 57 29
-0.382445 -0.054580 3.125228 31 59 29
-0.372571 -0.053668 3.125039 36 66 29
-0.361722 -0.054422 3.125617 28 53 25
-0.352308 -0.056225 3.125479 35 67 35
-0.344688 -0.051405 3.123629 37 62 30
-0.323695 -0.056056 3.125097 34 51 26
-0.432185 -0.067245 3.121406 15 25 14
-0.422826 -0.064846 3.125560 43 70 32
-0.415682 -0.064405 3.124668 38 77 35
-0.402730 -0.062554 3.126012 20 38 20
-0.393648 -0.064561 3.125523 25 40 24
-0.382569 -0.063958 3.125105 31 59 30
-0.371974 -0.065121 3.123841 32 67 31
-0.363338 -0.063770 3.126393 30 54 25
-0.353070 -0.059782 3.122171 37 76 50
-0.332622 -0.067235 3.124232 27 44 25
-0.319725 -0.059981 3.126671 6 11 7
-0.432260 -0.072553 3.129004 20 44 21
-0.404533 -0.072520 3.125391 30 53 24
-0.392539 -0.074047 3.124718 37 64 32
-0.381022 -0.071750 3.126795 32 60 29
-0.372482 -0.072893 3.122327 31 58 29
-0.366177 -0.072360 3.124096 20 41 22
-0.334757 -0.072585 3.124707 30 58 24
-0.445269 -0.084770 3.121267 15 31 19
-0.413606 -0.085305 3.126483 23 40 21
-0.399056 -0.081404 3.126666 39 72 40
-0.388255 -0.079460 3.127498 8 19 12
-0.382128 -0.085479 3.129025 33 59 27
-0.372906 -0.082905 3.126323 39 70 35
-0.360617 -0.084929 3.125898 40 81 31
-0.356423 -0.079916 3.126331 43 94 42
-0.329682 -0.087930 3.120094 34 70 25
-0.327380 -0.088403 3.125454 31 67 23
-0.421707 -0.091812 3.123714 17 27 16
-0.412913 -0.091423 3.126868 42 73 37
-0.400433 -0.092373 3.124960 23 48 26
-0.396474 -0.095475 3.128134 46 75 38
-0.375917 -0.096273 3.125744 8 13 7
-0.334442 -0.093666 3.126349 39 76 31
-0.414102 -0.104630 3.126318 33 72 37
-0.399055 -0.103322 3.127040 32 57 33
-0.393174 -0.105986 3.124822 36 67 26
-0.372825 -0.099772 3.128399 22 33 19
-0.362838 -0.104102 3.129147 38 57 34
-0.351634 -0.102970 3.126621 50 79 40
-0.345749 -0.099502 3.123909 46 80 36
-0.423072 -0.112738 3.128583 16 34 19
-0.408548 -0.119051 3.124195 13 23 12
-0.400930 -0.113287 3.123330 37 64 32
-0.394933 -0.114232 3.120268 36 67 27
-0.403212 -0.123188 3.126283 18 33 21
-0.395475 -0.120728 3.122592 18 34 22
-0.380843 -0.123624 3.124873 41 69 32
-0.391120 -0.136943 3.123185 27 43 24
-0.281972 -0.008653 3.135605 52 78 24
-0.468740 -0.017598 3.135778 23 41 20
-0.433724 -0.014330 3.133520 41 62 21
-0.413251 -0.013977 3.134912 25 53 32
-0.401368 -0.013820 3.133824 25 46 25
-0.386186 -0.017805 3.134400 7 13 7
-0.364232 -0.013686 3.135313 36 66 35
-0.351832 -0.014473 3.138245 31 62 27
-0.343833 -0.014126 3.137994 27 50 26
-0.288066 -0.012367 3.137389 20 31 13
-0.287150 -0.012432 3.130476 18 28 12
-0.471560 -0.025292 3.135867 25 44 22
-0.443250 -0.026519 3.136505 40 57 28
-0.429431 -0.025488 3.135298 35 63 29
-0.419839 -0.026701 3.130714 49 88 40
-0.410917 -0.026994 3.133261 37 69 28
-0.402379 -0.027102 3.135357 28 48 23
-0.392788 -0.026999 3.136877 31 53 27
-0.383448 -0.020765 3.134089 12 18 11
-0.359299 -0.022833 3.135011 17 32 14
-0.353972 -0.024813 3.134388 28 49 25
-0.347565 -0.028179 3.131981 42 68 36
-0.448832 -0.035391 3.134256 38 63 29
-0.444888 -0.030918 3.134839 38 70 26
-0.435304 -0.031372 3.136839 37 70 25
-0.412684 -0.032900 3.132818 41 74 34
-0.406364 -0.033738 3.134792 29 51 26
-0.392269 -0.035036 3.134539 34 63 28
-0.385395 -0.034126 3.133713 40 69 33
-0.373350 -0.036995 3.133071 34 58 29
-0.361384 -0.035590 3.134397 33 61 30
-0.353745 -0.033263 3.135463 25 41 21
-0.344198 -0.032367 3.134150 30 48 28
-0.336579 -0.034797 3.135342 4 7 4
-0.323045 -0.034364 3.130931 9 13 8
-0.487929 -0.042793 3.132092 53 92 33
-0.451548 -0.041320 3.135449 9 15 9
-0.422443 -0.042736 3.134202 34 64 27
-0.412042 -0.045102 3.135895 31 52 27
-0.404487 -0.043521 3.135037 15 23 13
-0.397300 -0.045008 3.132705 37 71 27
-0.382774 -0.046280 3.135159 31 57 27
-0.372386 -0.044037 3.135510 39 75 34
-0.363343 -0.043039 3.134408 39 73 31
-0.354978 -0.045196 3.136044 34 57 29
-0.343268 -0.043824 3.135177 27 47 25
-0.335620 -0.044635 3.132963 25 45 31
-0.289247 -0.044286 3.134914 36 53 33
-0.429479 -0.049844 3.134609 29 45 26
-0.418839 -0.053471 3.138031 23 42 25
-0.411611 -0.057077 3.134498 22 44 23
-0.400925 -0.055863 3.135595 38 66 34
-0.392789 -0.053745 3.135982 37 72 33
-0.383229 -0.054513 3.135035 36 64 30
-0.373215 -0.055479 3.134592 36 68 31
-0.360538 -0.055136 3.132751 36 69 31
-0.353801 -0.055203 3.133976 35 68 33
-0.344175 -0.053111 3.134837 31 58 32
-0.336624 -0.054152 3.135391 38 76 49
-0.326417 -0.058537 3.133770 30 47 24
-0.428826 -0.067916 3.130959 33 54 28
-0.422103 -0.066934 3.134278 44 73 32
-0.412827 -0.064093 3.136395 23 45 22
-0.402433 -0.063288 3.136153 23 42 24
-0.393851 -0.064839 3.135414 27 42 24
-0.383922 -0.065407 3.135273 31 59 29
-0.371763 -0.064788 3.134906 40 73 31
-0.361983 -0.063804 3.134797 33 61 29
-0.355921 -0.064609 3.134620 44 95 43
-0.342165 -0.060860 3.138819 31 63 38
-0.331531 -0.067110 3.130304 18 27 15
-0.431223 -0.070794 3.138286 26 43 21
-0.409551 -0.075082 3.133739 40 78 33
-0.401064 -0.073704 3.135967 33 59 28
-0.392474 -0.075175 3.134676 28 53 22
-0.381767 -0.072491 3.136569 29 56 27
-0.374044 -0.073667 3.134039 25 61 28
-0.365178 -0.072406 3.134704 33 68 33
-0.335871 -0.074235 3.135050 30 56 23
-0.441692 -0.083768 3.134609 28 59 33
-0.414228 -0.086169 3.134203 29 49 26
