ply
format ascii 1.0
element vertex 1349
property float x
property float y
property float z
property uchar red
property uchar green
property uchar blue
end_header
0.095363 0.180040 2.129591 64 99 67
0.015869 0.165695 2.123202 57 86 53
0.048573 0.164125 2.124599 3 4 4
0.057460 0.163994 2.126722 17 28 18
0.066063 0.165343 2.127554 30 45 29
0.077021 0.164032 2.128368 53 76 47
0.031863 0.150687 2.121505 4 5 5
0.039165 0.154840 2.122771 3 5 3
0.048908 0.155312 2.122689 24 39 27
0.057291 0.155765 2.125413 41 60 36
0.067662 0.157152 2.125084 55 82 46
0.077787 0.155364 2.126473 65 98 51
0.082164 0.155394 2.127468 70 106 49
0.006213 0.148409 2.122392 2 3 5
0.016574 0.144293 2.126463 11 14 14
0.027830 0.146084 2.125853 9 14 9
0.037425 0.146079 2.125952 21 33 23
0.046263 0.145992 2.124781 44 65 42
0.058398 0.145082 2.127048 62 93 54
0.066068 0.147622 2.124619 59 90 49
0.077285 0.147854 2.124972 58 85 53
0.085076 0.144015 2.124313 44 66 43
0.092799 0.146450 2.129287 32 47 32
0.006493 0.130883 2.126907 9 12 13
0.017277 0.136133 2.123952 23 29 26
0.026479 0.136077 2.123802 25 35 27
0.036217 0.136714 2.123191 40 61 40
0.048359 0.137032 2.123407 56 84 50
0.057532 0.135526 2.123080 56 86 52
0.067543 0.135184 2.122457 47 72 57
0.077980 0.136700 2.121979 34 48 46
0.083652 0.133674 2.129182 48 56 46
0.092683 0.139117 2.124913 8 15 8
-0.000544 0.124141 2.123297 11 16 14
0.006664 0.127814 2.126288 19 24 23
0.017462 0.125302 2.125369 32 40 37
0.028314 0.125490 2.124644 45 68 46
0.037442 0.125305 2.124939 56 88 47
0.048105 0.125636 2.124643 54 81 48
0.056645 0.124064 2.126940 40 59 37
0.066948 0.125023 2.127067 18 27 28
-0.000027 0.115165 2.125224 15 22 13
0.008679 0.115517 2.127142 27 37 28
0.016902 0.116296 2.126012 47 66 48
0.026535 0.114834 2.125344 53 79 46
0.036457 0.115387 2.123517 46 71 40
0.047325 0.114752 2.126646 27 43 26
0.056026 0.116894 2.126922 15 23 18
0.065220 0.116105 2.128369 6 9 6
-0.028530 0.104455 2.125308 3 4 3
-0.023110 0.106080 2.125317 12 18 16
-0.010357 0.103749 2.125190 26 37 26
-0.003415 0.104910 2.124933 26 35 22
0.007641 0.107721 2.122754 35 53 32
0.016225 0.106637 2.126223 50 74 44
0.027462 0.104070 2.126134 42 59 38
0.036707 0.103672 2.124951 18 29 19
0.046051 0.104681 2.123876 18 29 19
0.057126 0.105328 2.124909 13 24 15
0.062599 0.110271 2.129999 1 1 1
-0.022000 0.094400 2.125504 29 38 29
-0.012847 0.094479 2.125360 33 46 31
-0.003820 0.095081 2.126459 49 70 46
0.008383 0.095958 2.121327 44 60 38
0.018590 0.096725 2.123332 38 51 32
0.027033 0.095516 2.125322 34 50 30
0.036758 0.095927 2.125869 24 34 23
0.048274 0.095098 2.123536 10 14 14
0.058083 0.096938 2.123029 6 9 10
-0.012596 0.084518 2.125461 49 64 46
-0.002719 0.085264 2.125105 50 66 44
0.006312 0.086762 2.127268 35 53 31
0.024680 0.087578 2.122094 11 14 10
0.035976 0.085082 2.124715 23 29 25
0.047834 0.090057 2.129268 5 6 5
-0.001874 0.075938 2.126353 20 26 20
0.006255 0.076322 2.123745 7 12 7
0.014004 0.079075 2.129439 11 19 10
-0.004269 0.070036 2.121030 3 2 3
0.019750 0.069810 2.122019 8 9 10
0.106083 0.230900 2.134243 4 5 4
0.114373 0.232246 2.137749 7 10 8
0.093351 0.219013 2.138315 2 2 2
0.159860 0.215879 2.132439 26 39 28
0.167720 0.218171 2.134798 11 18 12
0.175926 0.219610 2.138184 4 4 3
0.139372 0.201494 2.134443 49 77 47
0.146412 0.205777 2.134392 45 68 45
0.153259 0.210524 2.133784 36 54 37
0.016376 0.192070 2.138884 2 2 3
0.028266 0.195603 2.133794 30 42 28
0.039298 0.197655 2.137309 63 87 55
0.081150 0.191698 2.137762 2 2 2
0.084192 0.193342 2.137953 3 5 3
0.125620 0.192157 2.135478 54 90 50
0.132473 0.196878 2.134896 50 83 47
0.016602 0.182584 2.136815 16 24 30
0.025539 0.189221 2.131995 35 50 41
0.071496 0.181028 2.134897 2 4 2
0.077873 0.186355 2.137068 4 6 5
0.083443 0.181056 2.138845 19 27 20
0.096732 0.185333 2.137147 55 89 59
0.107119 0.183618 2.132973 61 98 63
0.118610 0.187812 2.135605 59 95 57
0.026325 0.175525 2.132839 63 89 52
0.036737 0.176465 2.139236 64 91 50
0.059397 0.173204 2.133177 3 5 3
0.066232 0.172890 2.135499 7 11 6
0.077347 0.174960 2.136672 23 34 23
0.086060 0.174039 2.137594 48 67 47
0.095982 0.172988 2.137776 68 94 62
-0.012381 0.164801 2.139362 22 37 26
0.033924 0.160988 2.137833 50 74 42
0.047959 0.165461 2.135261 6 8 5
0.057823 0.164536 2.137418 17 31 21
0.068120 0.165540 2.136008 27 44 29
0.076993 0.165842 2.134099 48 70 42
0.086362 0.164566 2.135342 66 93 54
0.099103 0.166058 2.138078 73 106 59
0.027433 0.159715 2.134224 55 82 49
0.037210 0.156361 2.132823 5 10 6
0.046721 0.156397 2.135422 19 31 22
0.056055 0.156640 2.135048 32 46 29
0.065803 0.155207 2.135056 56 83 49
0.076596 0.157069 2.133578 63 94 52
0.086822 0.154989 2.133481 65 98 50
0.095286 0.154276 2.137439 68 98 52
0.018858 0.144343 2.135445 1 2 3
0.026771 0.147869 2.132876 2 6 3
0.037272 0.146132 2.133141 28 44 26
0.047723 0.145547 2.137056 51 74 47
0.057303 0.146069 2.135754 61 90 52
0.066323 0.144930 2.135892 60 90 50
0.076191 0.145890 2.135741 50 75 44
0.088007 0.144901 2.135209 49 66 37
0.095365 0.145131 2.135996 42 59 32
0.109298 0.146226 2.137818 19 20 10
-0.000582 0.135693 2.133361 1 1 2
0.007702 0.138237 2.134511 1 1 1
0.017211 0.135998 2.135319 11 16 11
0.028011 0.135048 2.136095 20 29 19
0.037029 0.135001 2.136434 41 60 38
0.048022 0.134685 2.135095 57 86 50
0.056691 0.136159 2.134784 61 90 53
0.067888 0.135467 2.134584 55 80 53
0.075703 0.138190 2.137034 50 73 41
0.086946 0.134997 2.135751 24 34 29
0.097484 0.136317 2.134972 7 11 6
0.102781 0.136101 2.139475 9 15 7
-0.018376 0.125096 2.139917 1 1 2
-0.010713 0.127749 2.138394 1 1 2
-0.000790 0.124107 2.135450 11 14 16
0.006370 0.125402 2.135461 15 18 18
0.017304 0.125125 2.134341 27 38 28
0.027417 0.126540 2.135766 35 51 33
0.035704 0.125906 2.135018 54 82 47
0.046587 0.126632 2.132811 53 83 47
0.057078 0.124571 2.134169 43 65 46
0.067429 0.127135 2.132594 40 56 37
0.077010 0.128593 2.135675 43 55 38
0.090873 0.130377 2.130439 35 43 48
-0.020662 0.112376 2.133653 15 21 22
-0.013090 0.114231 2.136256 10 15 13
-0.002513 0.114485 2.136234 14 19 18
0.007156 0.115403 2.135078 34 44 37
0.019357 0.116615 2.132166 49 73 46
0.025888 0.117079 2.132706 47 71 43
0.038109 0.117181 2.134470 51 77 47
0.046483 0.115947 2.135138 45 67 47
0.055290 0.115404 2.136771 30 47 39
0.067178 0.116929 2.134976 14 24 14
0.075077 0.115905 2.134895 20 25 15
-0.028416 0.102294 2.137676 6 10 8
-0.021927 0.105054 2.133497 8 12 9
-0.012513 0.104431 2.135050 22 32 22
-0.003205 0.105632 2.135339 31 44 36
0.006542 0.105268 2.135650 46 69 44
0.016047 0.105518 2.137016 49 75 45
0.027710 0.107711 2.134489 56 82 47
0.037266 0.107582 2.133518 50 75 46
0.045319 0.103796 2.134961 26 40 28
0.054596 0.106320 2.133428 11 19 14
0.068161 0.107317 2.132920 15 28 20
-0.022058 0.094799 2.134531 36 51 39
-0.011340 0.096188 2.134899 41 58 43
-0.002116 0.096331 2.135875 49 72 47
0.005979 0.095345 2.134849 49 74 45
0.016289 0.096457 2.136540 50 77 45
0.027101 0.096711 2.135314 44 65 38
0.037970 0.096217 2.134652 23 33 21
0.048041 0.096907 2.134568 15 22 15
0.056386 0.095637 2.137263 3 6 5
-0.012548 0.085735 2.135135 44 61 44
-0.003145 0.086121 2.134554 44 61 41
0.007120 0.085313 2.134484 35 50 29
0.016943 0.087038 2.135569 26 39 26
0.026321 0.084742 2.136372 7 11 7
0.041035 0.084557 2.132197 2 4 5
-0.012664 0.077886 2.136473 25 33 24
-0.002384 0.076169 2.136500 13 21 16
0.007349 0.075910 2.133914 6 11 7
0.018879 0.080513 2.134223 8 12 8
0.022389 0.080530 2.133281 5 6 4
0.003130 0.070176 2.130862 2 2 3
0.195801 0.233361 2.148314 2 2 2
0.104033 0.214662 2.148698 3 3 3
0.141965 0.212416 2.149136 64 102 56
0.155810 0.212946 2.144801 61 89 52
0.167385 0.216890 2.147720 40 59 32
0.184373 0.220442 2.142298 3 1 3
0.076846 0.205305 2.141124 2 5 1
0.096110 0.203898 2.142607 12 21 15
0.120250 0.201012 2.147536 51 89 53
0.127347 0.205153 2.147659 55 93 55
0.135860 0.206903 2.144981 63 101 57
0.144605 0.208091 2.142979 71 104 61
0.017609 0.193620 2.141461 7 9 9
0.028348 0.194100 2.148307 2 3 2
0.055674 0.191632 2.143388 67 97 55
0.076922 0.195620 2.147163 4 8 3
0.087816 0.196064 2.143956 4 8 5
0.096659 0.195115 2.145216 13 22 14
0.105018 0.195199 2.144303 45 75 51
0.114304 0.195116 2.143844 55 92 55
0.126710 0.198111 2.142226 63 104 56
0.010815 0.187451 2.140377 27 32 31
0.030857 0.181554 2.148784 14 22 14
0.048343 0.182315 2.145618 33 47 26
0.052297 0.185881 2.144342 66 95 53
0.069009 0.181056 2.145019 4 6 3
0.077654 0.187176 2.145810 4 7 8
0.087589 0.185255 2.142436 21 32 24
0.097290 0.187956 2.146106 17 25 16
0.106015 0.187802 2.146201 40 58 37
0.117387 0.184649 2.147790 58 87 48
0.142909 0.185807 2.142574 36 54 57
0.008661 0.177971 2.143167 23 28 30
0.018409 0.178230 2.142374 19 28 23
0.024667 0.179847 2.145628 12 20 13
0.044631 0.177288 2.145639 33 47 25
0.058950 0.174630 2.143608 18 25 14
0.068342 0.174556 2.145651 16 26 18
0.078029 0.176155 2.145552 17 26 19
0.087783 0.178398 2.143889 18 25 18
0.096020 0.178221 2.145267 52 73 48
0.105943 0.178085 2.145417 63 93 55
0.117180 0.174207 2.145461 77 109 61
0.126222 0.174871 2.149204 77 109 58
0.047427 0.162253 2.145121 16 24 14
0.055464 0.165861 2.146098 22 34 19
0.066110 0.164648 2.143147 26 38 23
0.077483 0.166613 2.147510 45 66 40
0.087206 0.167116 2.142430 60 86 53
0.097310 0.165908 2.144454 68 98 56
0.106977 0.168304 2.146934 70 102 55
0.115907 0.165115 2.144674 76 105 61
0.124167 0.160712 2.148428 53 72 43
-0.013603 0.156608 2.140028 28 50 34
0.038454 0.156873 2.143356 14 21 12
0.045106 0.154058 2.144066 10 17 10
0.058436 0.154942 2.145993 28 40 25
0.066704 0.154756 2.143105 58 84 49
0.076715 0.156398 2.146346 64 95 52
0.086793 0.155190 2.146449 59 94 52
0.099186 0.152198 2.144227 52 75 42
0.107921 0.158686 2.146086 63 90 50
0.117042 0.153248 2.146166 37 53 33
-0.021207 0.144939 2.146178 30 58 39
0.026258 0.144855 2.143266 3 5 4
0.036379 0.144944 2.143307 9 14 10
0.047221 0.146712 2.145417 16 24 15
0.055362 0.146247 2.144650 35 51 34
0.066513 0.145541 2.146529 53 79 48
0.077414 0.144676 2.144192 66 97 51
0.085183 0.147634 2.146256 62 97 49
0.096440 0.144979 2.143351 31 45 24
0.107645 0.146290 2.145837 24 34 19
0.118931 0.149527 2.145403 3 3 1
-0.000167 0.132138 2.144740 5 7 7
0.014890 0.134897 2.147867 2 3 2
0.027482 0.134891 2.145351 16 21 23
0.036030 0.136863 2.142991 25 35 24
0.045826 0.137434 2.145426 34 49 30
0.056604 0.136839 2.146442 58 85 51
0.069472 0.135813 2.148401 58 93 56
0.078089 0.136542 2.145669 43 65 39
0.086121 0.135548 2.146121 31 47 27
0.106326 0.135708 2.142226 2 3 2
0.113868 0.139969 2.148645 3 5 3
-0.011524 0.123573 2.144531 8 17 11
-0.006098 0.126622 2.144230 2 3 2
0.008597 0.126286 2.147830 7 11 8
0.014137 0.123070 2.144170 22 31 21
0.027075 0.126311 2.146174 35 49 37
0.037125 0.125380 2.144216 42 61 39
0.047151 0.125926 2.145156 50 72 44
0.057325 0.126512 2.145744 50 75 45
0.066714 0.124309 2.145677 53 86 47
0.077993 0.125303 2.145247 30 53 28
0.086728 0.125710 2.143339 15 20 19
-0.028076 0.110751 2.147302 2 1 2
-0.021607 0.113938 2.143460 6 9 10
-0.012371 0.116879 2.142694 11 15 17
-0.002868 0.115126 2.145303 18 28 23
0.007833 0.115310 2.144776 29 44 32
0.016076 0.115742 2.146335 35 56 35
0.028166 0.114900 2.145184 55 83 47
0.035802 0.115583 2.145966 52 78 45
0.047787 0.114709 2.144485 51 76 47
0.057355 0.117104 2.146140 44 70 44
0.063633 0.113906 2.148282 44 71 32
0.076394 0.118805 2.146752 32 53 29
0.086608 0.115754 2.146888 6 14 7
-0.031656 0.104048 2.147867 15 22 23
-0.021593 0.106424 2.143180 13 20 16
-0.011718 0.105427 2.144975 29 42 35
-0.001342 0.106593 2.144923 35 53 38
0.006570 0.104743 2.144636 44 67 43
0.016921 0.104817 2.146289 48 77 46
0.026926 0.105578 2.145087 50 80 46
0.036272 0.106392 2.144321 53 78 44
0.047995 0.104764 2.142648 45 62 39
0.057537 0.106544 2.144909 28 41 24
0.064999 0.106333 2.146736 21 30 17
-0.022673 0.097465 2.145317 25 35 32
-0.014159 0.095497 2.144987 47 66 55
-0.003596 0.095238 2.143589 47 68 45
0.007623 0.096797 2.144849 45 68 41
0.016465 0.095730 2.144253 38 56 37
0.027388 0.095358 2.146141 36 58 36
0.037668 0.094800 2.146769 19 33 19
0.046814 0.097265 2.144761 8 12 9
0.058122 0.100216 2.145270 2 4 2
0.066017 0.099037 2.146674 5 8 4
-0.011970 0.085298 2.144271 46 65 51
-0.003142 0.085280 2.145362 33 50 35
0.007546 0.086949 2.144991 22 34 23
0.016840 0.087281 2.143157 16 28 17
0.026553 0.087601 2.144201 13 22 13
0.036239 0.087376 2.143023 7 12 8
0.046959 0.084981 2.149227 4 8 4
-0.012931 0.077242 2.143147 18 25 20
-0.003238 0.077079 2.145417 14 20 15
0.007595 0.075580 2.144254 9 14 9
0.014287 0.075566 2.147966 6 9 6
0.205158 0.279146 2.153619 1 2 1
0.131058 0.232595 2.158953 17 24 30
0.127176 0.222725 2.154342 10 16 12
0.134187 0.227093 2.154198 10 18 14
0.186680 0.223415 2.152632 10 13 11
0.117403 0.212127 2.157719 1 3 1
0.131861 0.213484 2.154103 39 62 41
0.139207 0.217026 2.154949 41 68 41
0.147906 0.217294 2.159739 48 77 45
0.159715 0.212069 2.159784 73 108 58
0.175661 0.218141 2.151323 27 36 23
0.101688 0.202166 2.152290 2 2 1
0.108513 0.202935 2.152347 13 21 14
0.116909 0.202288 2.156574 15 23 16
0.125191 0.205570 2.157630 17 26 18
0.149949 0.206022 2.156669 66 104 51
0.036124 0.193511 2.153785 3 5 3
0.085732 0.193957 2.150506 1 1 2
0.096740 0.192428 2.159914 4 8 4
0.107764 0.196458 2.153703 13 19 12
0.116329 0.194966 2.155260 38 55 36
0.127053 0.196481 2.156146 55 78 50
0.136783 0.195789 2.157456 63 95 50
0.037882 0.182047 2.153170 22 32 20
0.046429 0.185639 2.156845 33 45 30
0.060353 0.183137 2.159346 62 91 55
0.068626 0.182710 2.150268 1 1 1
0.075740 0.185084 2.154716 4 6 3
0.087782 0.185796 2.153178 6 10 6
0.095835 0.185985 2.156662 18 27 16
0.107576 0.185907 2.153948 45 64 40
0.118078 0.186442 2.153996 61 89 53
0.126870 0.186647 2.155602 69 102 55
0.135182 0.185098 2.156987 72 105 52
0.147872 0.186705 2.157782 74 106 51
0.058683 0.175564 2.153891 1 1 1
0.068103 0.173770 2.154416 6 10 5
0.077761 0.176857 2.155387 22 34 24
0.087399 0.175943 2.154073 40 58 37
0.097793 0.176479 2.155944 53 80 47
0.107564 0.176042 2.155220 63 91 51
0.116743 0.177187 2.152969 69 102 57
0.127167 0.177690 2.156070 77 108 63
0.136348 0.177502 2.156987 66 94 55
0.145872 0.176524 2.157814 54 76 46
0.051433 0.163044 2.150688 10 15 10
0.060159 0.162576 2.157063 15 20 14
0.066429 0.165680 2.155586 23 32 21
0.078095 0.166388 2.155840 22 33 20
0.086427 0.165513 2.154194 50 75 45
0.096320 0.163762 2.155421 67 100 56
0.105914 0.166939 2.158078 64 99 50
0.116230 0.165516 2.154765 65 94 50
0.128693 0.167880 2.154676 58 82 48
0.136826 0.167402 2.157306 35 53 29
0.145487 0.164601 2.157952 18 25 13
-0.013853 0.156897 2.151009 7 13 9
0.058532 0.154801 2.152711 15 23 15
0.067593 0.155087 2.155582 21 31 20
0.076046 0.155688 2.154505 44 66 39
0.087022 0.155111 2.155318 65 96 53
0.096083 0.155024 2.154521 67 100 53
0.106500 0.156257 2.157198 61 90 45
0.117409 0.156181 2.152673 35 49 27
0.126654 0.155980 2.154904 17 25 13
0.135463 0.156020 2.157657 4 8 5
-0.014997 0.148700 2.151605 10 20 13
0.014603 0.141920 2.150459 2 3 4
0.028368 0.142192 2.155421 7 11 11
0.049747 0.144850 2.154068 18 26 17
0.058115 0.145432 2.152283 30 44 28
0.067001 0.146789 2.156277 42 60 35
0.076289 0.145489 2.155256 56 85 48
0.087004 0.145622 2.155919 63 95 50
0.097269 0.144744 2.155253 50 74 40
0.105087 0.146365 2.158813 40 59 34
0.118462 0.147219 2.152182 10 17 9
0.126537 0.145197 2.155992 1 3 2
0.132149 0.147665 2.157221 0 1 2
-0.013119 0.136153 2.154671 8 18 12
-0.000824 0.130849 2.158832 1 1 3
0.005975 0.135228 2.153418 7 9 11
0.016030 0.132783 2.156627 6 9 7
0.026756 0.135683 2.155752 18 27 19
0.036299 0.134410 2.155670 29 44 28
0.046407 0.134898 2.155354 42 61 39
0.058560 0.134371 2.151752 49 73 41
0.067657 0.136531 2.154706 60 88 47
0.077078 0.136421 2.156211 63 90 48
0.087032 0.135693 2.155518 42 64 34
0.096947 0.134429 2.155242 17 28 15
0.106805 0.137367 2.156646 3 8 4
0.117899 0.135899 2.152648 1 1 1
0.122435 0.137799 2.153754 1 2 2
-0.001679 0.122546 2.155854 12 16 17
0.006776 0.124095 2.155560 14 21 21
0.017044 0.125371 2.155022 18 27 20
0.026458 0.126208 2.156091 30 47 31
0.037737 0.125087 2.155143 49 75 46
0.046341 0.123418 2.155398 56 86 51
0.057103 0.125380 2.155313 51 76 44
0.068527 0.124605 2.155090 60 87 47
0.077230 0.127193 2.156619 54 80 42
0.088178 0.125360 2.155364 24 39 22
0.096028 0.124126 2.156851 3 5 4
0.106016 0.125600 2.159122 7 13 7
-0.020212 0.114035 2.153540 0 0 0
-0.011915 0.114242 2.153815 10 16 14
-0.001751 0.116741 2.153711 18 28 24
0.007614 0.114445 2.155665 35 53 41
0.017410 0.116015 2.155132 41 62 42
0.027457 0.115486 2.155804 51 82 50
0.036674 0.114861 2.155805 58 91 52
0.047420 0.116151 2.157515 56 92 51
0.057439 0.114983 2.154259 50 76 43
0.067048 0.116395 2.153876 37 56 35
0.078007 0.115459 2.156316 30 47 22
0.086235 0.115098 2.156314 3 4 3
0.092420 0.117145 2.158713 1 4 3
-0.034042 0.105436 2.150100 2 2 4
-0.022434 0.106109 2.153628 14 21 21
-0.011297 0.106343 2.155209 22 36 28
-0.001662 0.105048 2.154899 39 70 45
0.007184 0.106072 2.153685 45 71 44
0.018231 0.107561 2.153510 48 75 46
0.026793 0.105997 2.154950 45 73 44
0.037542 0.105435 2.155085 42 66 39
0.046199 0.104158 2.155708 45 71 41
0.057150 0.107347 2.156588 17 28 19
0.069376 0.106847 2.153790 9 13 7
0.076691 0.108707 2.154922 7 12 6
-0.023695 0.097175 2.153300 23 29 28
-0.011239 0.096049 2.154524 45 63 55
-0.002308 0.095767 2.154092 40 64 42
0.008641 0.094983 2.155826 40 64 39
0.017370 0.096113 2.155452 31 48 33
0.027792 0.096144 2.154622 20 31 22
0.037037 0.098299 2.155492 27 44 28
0.046302 0.097065 2.155161 17 28 17
0.057256 0.097958 2.155581 29 47 29
0.073736 0.096945 2.156760 2 3 2
-0.014417 0.085381 2.154211 48 80 52
-0.001506 0.086810 2.154176 40 64 40
0.006678 0.087100 2.153347 25 41 25
0.015577 0.087143 2.156390 19 31 19
0.032011 0.086142 2.159867 1 1 1
0.032813 0.089433 2.153305 3 6 4
0.043055 0.090059 2.154465 28 51 31
0.058064 0.082800 2.159474 3 7 4
-0.002353 0.075227 2.156082 29 44 29
0.006477 0.075410 2.153358 4 6 4
0.012522 0.078737 2.153859 2 4 2
0.004838 0.068094 2.157502 1 2 3
0.105956 0.271709 2.164857 1 1 2
0.098459 0.261239 2.165689 1 1 2
0.119069 0.264848 2.169211 21 30 16
0.095440 0.254932 2.167179 1 1 2
0.196666 0.255019 2.164132 20 24 18
0.206647 0.256895 2.163037 44 47 42
0.089001 0.242923 2.169563 3 5 3
0.067758 0.231188 2.161999 1 1 2
0.081200 0.232928 2.169931 2 4 2
0.084851 0.238291 2.169380 3 5 3
0.144667 0.234488 2.165768 1 2 2
0.190483 0.239491 2.168079 73 86 57
0.077118 0.228201 2.169845 1 3 2
0.128227 0.223906 2.164440 1 1 0
0.132982 0.223400 2.162094 3 4 2
0.146456 0.224318 2.167901 12 20 14
0.168813 0.220697 2.166149 59 86 48
0.175806 0.227528 2.168965 53 73 43
0.182257 0.228082 2.168768 78 100 55
0.197857 0.226130 2.168360 16 22 19
0.065152 0.213610 2.170000 0 0 1
0.118171 0.213894 2.165979 1 3 2
0.123510 0.210867 2.160712 5 9 5
0.137459 0.215631 2.166658 13 19 12
0.146648 0.213945 2.166698 34 47 30
0.157492 0.215669 2.166662 54 78 45
0.164863 0.216131 2.166255 67 100 47
0.177752 0.218788 2.167957 76 104 50
0.078094 0.203543 2.167913 56 77 48
0.085033 0.209421 2.169254 61 84 48
0.110915 0.204467 2.164805 6 11 5
0.117868 0.209448 2.162829 4 6 4
0.127461 0.205542 2.164418 23 33 22
0.137336 0.206779 2.164593 41 59 37
0.146656 0.207199 2.162535 66 96 54
0.156384 0.206151 2.164967 66 100 46
0.167872 0.206653 2.165606 78 108 56
0.176076 0.208285 2.168201 87 114 57
0.044422 0.192155 2.160031 4 6 3
0.057389 0.191669 2.166182 19 26 17
0.068833 0.194511 2.164075 56 77 51
0.077440 0.191762 2.163674 4 6 4
0.082680 0.193255 2.168547 64 97 52
0.096885 0.191852 2.164858 37 52 27
0.107047 0.195237 2.165451 9 14 8
0.117222 0.194293 2.164694 35 50 32
0.127253 0.194020 2.166416 55 78 48
0.135955 0.195155 2.165825 51 76 44
0.147027 0.195647 2.164664 68 103 54
0.156337 0.196496 2.164714 61 91 43
0.167020 0.197544 2.167467 80 109 54
0.055150 0.188966 2.160782 37 53 34
0.065193 0.186752 2.160553 66 95 58
0.077915 0.184680 2.164404 46 68 39
0.085663 0.184683 2.166212 27 39 22
0.098955 0.184888 2.164510 39 54 34
0.106185 0.184986 2.165481 37 54 32
0.116219 0.185288 2.164796 57 83 50
0.126821 0.184896 2.166313 58 87 51
0.138010 0.185575 2.164836 60 89 50
0.146129 0.187910 2.164214 62 90 49
0.155763 0.187324 2.164019 60 86 48
0.166661 0.188178 2.167291 45 61 32
0.069500 0.178046 2.164478 2 3 2
0.076844 0.174077 2.163773 50 73 44
0.087624 0.175345 2.165486 22 33 20
0.099252 0.175113 2.166440 30 43 29
0.106637 0.174951 2.165881 57 84 49
0.117708 0.174553 2.165032 63 98 52
0.127648 0.175329 2.166191 67 98 52
0.134571 0.175306 2.168417 72 102 55
0.145883 0.177161 2.164147 52 73 39
0.156702 0.177360 2.164982 28 41 21
0.166486 0.176907 2.169272 10 14 7
0.071912 0.163211 2.162308 3 5 6
0.078375 0.163492 2.164742 27 39 25
0.087855 0.165993 2.164783 31 46 28
0.096931 0.166731 2.164329 46 68 41
0.106943 0.166310 2.166378 64 96 53
0.117924 0.164829 2.165881 67 98 55
0.127007 0.164944 2.164283 55 78 41
0.134562 0.165853 2.166996 45 62 34
0.147291 0.167388 2.162682 10 16 7
0.157390 0.168686 2.164297 3 6 3
0.163292 0.169229 2.166641 1 1 2
0.043211 0.153413 2.166644 2 3 3
0.069398 0.154637 2.164728 27 37 24
0.077047 0.155080 2.163182 39 56 35
0.087906 0.155439 2.165798 57 83 48
0.096945 0.156741 2.164354 64 96 53
0.107080 0.156656 2.165345 66 99 52
0.117184 0.154198 2.165661 49 72 37
0.127316 0.156610 2.166719 32 48 25
0.137516 0.155563 2.163628 4 9 5
0.146594 0.157514 2.161304 1 2 1
0.027622 0.144446 2.162939 0 1 0
0.035823 0.144160 2.165137 3 5 3
0.044744 0.144589 2.165632 7 12 8
0.056909 0.144723 2.165743 16 26 16
0.066693 0.142992 2.169371 45 65 40
0.079066 0.146100 2.162253 58 83 47
0.087308 0.144816 2.164536 61 91 49
0.097078 0.147212 2.165648 62 90 48
0.108306 0.146145 2.164510 47 72 39
0.117143 0.145496 2.166145 27 42 21
0.126304 0.144715 2.168607 10 15 8
0.139089 0.145967 2.160548 1 1 3
-0.003843 0.137033 2.166192 9 16 11
0.007035 0.131768 2.166247 30 45 38
0.017263 0.132159 2.163298 8 12 9
0.028098 0.134131 2.164008 10 17 11
0.036650 0.134832 2.166065 25 38 25
0.046858 0.135006 2.164110 41 65 40
0.056893 0.135733 2.166860 50 79 46
0.065471 0.133635 2.167986 60 93 52
0.078425 0.136629 2.162592 65 95 49
0.087407 0.134680 2.163456 57 83 42
0.096913 0.136900 2.165372 44 65 33
0.107843 0.136702 2.164141 12 19 10
0.115644 0.136209 2.165726 5 10 5
0.124926 0.133939 2.166971 5 6 5
-0.018710 0.124418 2.164390 24 50 31
-0.008265 0.126292 2.162246 0 0 2
-0.004635 0.123156 2.162609 37 68 44
0.006182 0.125291 2.163304 19 30 24
0.016393 0.125400 2.164077 23 37 25
0.026373 0.125999 2.164083 36 53 37
0.036936 0.125197 2.165108 46 72 45
0.047224 0.126070 2.165485 51 81 50
0.057274 0.126218 2.166301 53 89 51
0.066934 0.125982 2.164747 48 76 42
0.076464 0.124824 2.163576 48 69 42
0.087134 0.124738 2.164613 37 56 28
0.097457 0.126682 2.163365 9 15 8
0.104785 0.127222 2.165002 4 6 4
0.113344 0.130397 2.163420 8 15 7
-0.023288 0.112502 2.165889 26 36 42
-0.014959 0.119484 2.165974 7 7 10
-0.001432 0.114593 2.164264 25 37 28
0.006466 0.115558 2.163711 30 54 41
0.017045 0.116000 2.164989 45 72 48
0.027957 0.116417 2.164567 51 76 50
0.037838 0.116373 2.164593 49 75 47
0.047052 0.115866 2.166021 47 78 47
0.056446 0.116283 2.164814 45 74 40
0.065845 0.117041 2.165329 40 62 40
0.077293 0.116372 2.163669 12 20 12
0.086422 0.115514 2.165340 13 22 10
0.095336 0.118796 2.166806 14 20 12
0.104682 0.111966 2.169613 45 68 46
-0.033700 0.103460 2.160164 0 0 0
-0.024784 0.106811 2.169463 9 11 15
-0.013698 0.105053 2.165333 31 36 42
-0.002639 0.105589 2.163121 49 66 62
0.008486 0.105050 2.163984 50 80 49
0.017048 0.105234 2.163303 43 68 42
0.027151 0.104718 2.165131 43 66 39
0.036531 0.105005 2.164507 32 49 30
0.047109 0.106077 2.163789 26 42 27
0.058424 0.105478 2.163703 18 28 16
0.065781 0.106442 2.165692 23 36 23
0.080017 0.109088 2.164735 26 40 26
0.085247 0.105064 2.163576 4 7 3
0.098577 0.110217 2.168100 45 67 45
-0.022590 0.094982 2.165539 26 34 30
-0.017449 0.090767 2.162347 45 62 42
-0.003087 0.094428 2.165536 50 80 54
0.010111 0.095669 2.163876 41 66 41
0.017633 0.096167 2.163588 36 56 34
0.027354 0.096105 2.165114 22 35 23
0.036732 0.095335 2.165951 14 22 14
0.047122 0.096274 2.165632 6 10 7
0.056809 0.096854 2.165670 13 22 13
0.066239 0.097867 2.162564 10 16 11
0.075365 0.097830 2.165989 16 24 17
-0.022107 0.085751 2.166093 14 22 15
-0.011533 0.087263 2.164500 47 77 54
-0.002313 0.085071 2.166161 55 87 49
0.008784 0.086031 2.166374 46 72 43
0.017821 0.085931 2.163499 17 28 18
0.024017 0.086694 2.166166 14 23 14
0.037417 0.086788 2.166313 2 4 3
0.042296 0.087942 2.169139 3 5 3
0.052603 0.090481 2.161095 27 49 30
0.068633 0.081490 2.168503 5 9 6
-0.012101 0.074920 2.163631 52 80 49
-0.003789 0.076400 2.166179 49 78 46
0.006470 0.075855 2.164171 28 44 26
0.018211 0.075773 2.166437 7 11 6
0.024147 0.075093 2.168746 2 3 2
-0.003039 0.065928 2.164098 27 40 26
0.005284 0.066655 2.167172 11 18 12
0.195349 0.270987 2.179753 1 0 1
0.105474 0.261638 2.170110 1 1 2
0.190088 0.262401 2.175819 1 0 0
0.197963 0.266942 2.178104 2 3 3
0.119534 0.253376 2.175871 24 33 20
0.137617 0.255254 2.178705 85 98 68
0.114694 0.244404 2.177635 25 32 19
0.132171 0.247190 2.179565 77 101 52
0.160854 0.246303 2.175364 36 47 42
0.170657 0.240859 2.176917 4 7 3
0.177683 0.243039 2.172750 0 2 1
0.184069 0.243326 2.172758 2 5 3
0.109862 0.235428 2.179406 26 33 23
0.115733 0.233907 2.176032 65 89 49
0.123542 0.238473 2.178677 66 91 45
0.151643 0.233170 2.174301 5 8 5
0.157868 0.236897 2.173879 7 12 9
0.167186 0.233776 2.175973 14 22 17
0.176935 0.234090 2.177445 28 42 26
0.184757 0.235125 2.176912 53 71 40
0.196073 0.236808 2.170367 113 124 98
0.101743 0.225945 2.179280 36 47 33
0.105855 0.228216 2.175342 52 71 44
0.122213 0.220752 2.179526 80 112 50
0.138863 0.222129 2.173450 7 13 8
0.146480 0.226335 2.175068 13 22 22
0.157269 0.225643 2.173600 22 32 25
0.166710 0.225041 2.173471 39 56 36
0.175709 0.227914 2.175113 60 83 47
0.186284 0.224596 2.175699 81 100 69
0.205991 0.227673 2.171594 4 7 7
0.089505 0.212686 2.174464 41 58 35
0.096465 0.218522 2.175842 46 64 40
0.115142 0.215111 2.177963 76 106 51
0.129347 0.218264 2.172386 1 3 1
0.137626 0.214990 2.173397 8 11 7
0.147745 0.217863 2.172859 24 35 21
0.156458 0.216058 2.176335 49 68 43
0.168874 0.216321 2.174519 80 108 67
0.177884 0.216265 2.174778 84 110 70
0.186526 0.213985 2.175748 92 113 69
0.192705 0.217247 2.173948 43 52 46
0.076923 0.203514 2.175265 16 22 15
0.083896 0.209338 2.176658 22 29 20
0.098173 0.202613 2.173638 69 101 48
0.105946 0.207237 2.176229 71 101 49
0.116233 0.204570 2.176440 77 106 52
0.125290 0.206518 2.174969 25 34 20
0.137828 0.208046 2.177038 25 34 23
0.147021 0.207557 2.173850 54 79 46
0.157637 0.206418 2.174937 71 103 54
0.169168 0.205183 2.172804 75 105 48
0.175984 0.207104 2.173276 83 114 51
0.185948 0.206101 2.176132 71 92 47
0.194425 0.208162 2.178840 34 41 22
0.066988 0.196670 2.172476 12 17 13
0.087712 0.196573 2.170046 67 99 51
0.092513 0.200224 2.171206 69 101 49
0.105713 0.198650 2.172740 72 104 50
0.117374 0.195498 2.173162 17 26 16
0.128336 0.195434 2.174387 41 58 36
0.137241 0.197260 2.175710 47 69 40
0.147357 0.194707 2.174268 69 100 48
0.158293 0.196649 2.178188 72 103 48
0.167792 0.193992 2.178684 69 87 41
0.176739 0.196611 2.172889 61 79 41
0.185933 0.194121 2.178699 26 35 18
0.192711 0.196890 2.178670 10 16 6
0.089802 0.186121 2.170437 4 8 5
0.097471 0.185664 2.175503 11 17 10
0.107945 0.185630 2.175276 24 35 22
0.116636 0.186447 2.174815 43 63 40
0.126524 0.187322 2.175770 35 53 29
0.137833 0.183476 2.175286 61 94 47
0.144964 0.183887 2.176138 71 103 50
0.156835 0.184622 2.177137 61 86 44
0.163676 0.187121 2.178828 68 85 41
0.177660 0.185447 2.174538 15 21 11
0.183033 0.186379 2.175696 5 8 4
0.058260 0.171947 2.176167 4 8 4
0.089989 0.176337 2.170817 22 29 20
0.097767 0.175615 2.173714 25 35 24
0.107085 0.175670 2.175351 33 48 30
0.117372 0.175174 2.174757 58 87 50
0.126674 0.175876 2.174431 62 93 52
0.137126 0.174930 2.175839 65 97 51
0.147887 0.175701 2.175081 55 78 42
0.158249 0.174940 2.176179 28 40 21
0.168710 0.176308 2.174049 12 15 7
0.177150 0.177207 2.173748 1 2 2
0.058479 0.161376 2.175138 1 3 3
0.079275 0.162664 2.174924 3 5 3
0.086107 0.166187 2.173590 19 26 17
0.096376 0.164766 2.173367 47 65 42
0.105898 0.167020 2.176008 58 84 51
0.116654 0.165337 2.176486 60 87 47
0.125410 0.167028 2.175168 65 95 50
0.137238 0.165823 2.175087 49 73 38
0.147374 0.166033 2.174497 21 33 17
0.155361 0.166343 2.176948 4 6 4
0.167076 0.166167 2.178599 8 13 8
0.174896 0.170367 2.176488 2 2 2
0.049050 0.154148 2.173114 9 15 9
0.056571 0.153594 2.177981 8 14 9
0.066777 0.154688 2.175699 12 21 12
0.076729 0.155131 2.176972 30 46 32
0.086045 0.155086 2.176411 52 74 44
0.097300 0.156724 2.172260 56 82 47
0.106818 0.157352 2.174456 64 93 51
0.117468 0.154949 2.175339 57 81 44
0.127823 0.156690 2.174219 43 61 32
0.137290 0.155828 2.174246 17 26 14
0.145480 0.156011 2.176063 6 10 6
0.157114 0.155833 2.176888 2 3 2
0.163303 0.155376 2.177618 1 2 3
0.007726 0.147335 2.174388 5 7 5
0.016334 0.146682 2.177498 16 25 18
0.028049 0.140942 2.172272 3 4 3
0.038350 0.145118 2.175406 6 11 7
0.047901 0.145640 2.175496 12 20 13
0.057459 0.145215 2.174622 28 44 28
0.066473 0.144633 2.175834 41 69 42
0.076961 0.144981 2.175423 60 89 52
0.087136 0.147541 2.178768 73 105 55
0.098838 0.146467 2.173598 65 95 51
0.107331 0.146632 2.174901 58 83 45
0.114771 0.143587 2.177120 46 62 35
0.127592 0.145620 2.174212 6 8 5
0.136032 0.148052 2.172943 13 23 13
0.009070 0.138866 2.172773 23 38 26
0.019016 0.135767 2.173966 14 24 16
0.026998 0.134087 2.175398 26 40 30
0.037401 0.135459 2.173884 28 42 29
0.047205 0.136372 2.174425 40 61 40
0.057340 0.134977 2.175846 50 78 48
0.066397 0.135728 2.176313 53 84 49
0.076857 0.134864 2.175001 60 98 52
0.084917 0.136917 2.176641 66 101 51
0.098189 0.136372 2.175200 54 82 42
0.109134 0.136834 2.175409 27 39 19
0.117527 0.135809 2.177529 15 20 11
0.009578 0.126627 2.171411 18 30 20
0.019453 0.126226 2.173336 34 57 37
0.026095 0.126184 2.173794 40 64 45
0.038465 0.126234 2.174379 52 79 49
0.047472 0.125320 2.172850 50 79 46
0.056581 0.125660 2.174198 51 80 49
0.066268 0.125659 2.175742 49 81 45
0.077092 0.124171 2.175636 48 79 43
0.088501 0.126835 2.174379 48 71 41
0.098541 0.125736 2.175288 20 31 18
0.106852 0.126427 2.174960 17 24 12
0.116947 0.125364 2.176777 3 4 2
0.125700 0.130679 2.179136 1 4 4
-0.003599 0.116479 2.172260 12 17 19
0.008514 0.116088 2.172565 34 50 35
0.017003 0.115757 2.175019 61 90 57
0.027307 0.116244 2.175802 58 90 56
0.036929 0.114700 2.174638 39 61 39
0.046696 0.116115 2.175428 45 69 41
0.057328 0.116643 2.174946 41 64 39
0.068171 0.116058 2.174653 30 48 30
0.077242 0.116047 2.175658 19 32 20
0.087891 0.117407 2.174271 7 11 7
0.097504 0.114765 2.173128 9 12 9
0.106914 0.119930 2.179722 1 2 1
-0.018454 0.105956 2.174382 12 13 16
-0.010262 0.105044 2.174936 21 25 29
-0.002352 0.103748 2.174390 25 39 33
0.009537 0.106232 2.178877 51 73 49
0.016910 0.104020 2.174795 64 96 56
0.029896 0.107922 2.172665 57 89 50
0.036831 0.105395 2.174478 36 57 35
0.046317 0.106447 2.175487 28 41 26
0.055712 0.106996 2.173999 17 27 18
0.065752 0.107028 2.173042 19 29 20
0.075653 0.106786 2.174127 17 25 19
0.086264 0.105904 2.171693 38 56 41
0.095492 0.107150 2.172709 23 35 25
0.107360 0.109055 2.174892 31 46 32
-0.022731 0.094649 2.173722 19 24 25
-0.013668 0.096522 2.177145 28 41 32
-0.002656 0.097597 2.175454 41 67 51
0.005416 0.096636 2.175845 54 88 54
0.017918 0.096187 2.175183 53 87 48
0.026973 0.096176 2.174794 39 66 37
0.035878 0.096369 2.174656 29 44 27
0.044766 0.096272 2.178399 19 28 18
0.055387 0.098299 2.172515 10 16 9
0.063535 0.094491 2.177630 2 4 4
-0.012930 0.084482 2.175093 50 69 57
-0.002111 0.084439 2.172396 47 85 49
0.007172 0.085731 2.175411 52 85 47
0.017024 0.085022 2.176784 50 75 42
0.028414 0.085452 2.174194 24 37 22
0.037378 0.087147 2.172305 5 8 5
0.043087 0.090179 2.175048 13 18 11
-0.010974 0.076351 2.170734 42 50 57
-0.001422 0.076488 2.173808 43 67 48
0.007008 0.076442 2.173082 43 66 41
0.016280 0.076784 2.174303 33 45 29
0.025864 0.077067 2.172674 7 11 6
-0.002423 0.065279 2.172414 32 54 41
0.007344 0.067445 2.174725 18 29 21
0.015547 0.068769 2.179569 7 9 6
0.005207 0.057675 2.173648 8 12 15
0.187101 0.265384 2.183425 2 2 2
0.197264 0.267744 2.182654 3 3 4
0.203770 0.267443 2.180490 7 7 7
0.178619 0.259283 2.188815 0 0 0
0.188680 0.254817 2.185318 3 3 3
0.161511 0.243530 2.189272 1 1 1
0.167487 0.245045 2.189487 2 2 3
0.178201 0.247760 2.183894 1 1 1
0.188035 0.245650 2.184530 10 14 8
0.195719 0.244451 2.183363 28 31 24
0.101768 0.234857 2.182472 2 3 3
0.130378 0.239091 2.182868 71 97 49
0.156572 0.232913 2.184828 0 1 1
0.166553 0.234270 2.185502 3 5 3
0.176933 0.236551 2.184521 14 21 15
0.185519 0.237770 2.185473 29 38 34
0.196910 0.234418 2.187973 55 62 60
0.128243 0.222566 2.182520 85 116 52
0.136298 0.226734 2.185553 89 120 54
0.150303 0.223515 2.182975 4 7 4
0.157361 0.224009 2.182804 12 18 12
0.166399 0.225330 2.183823 35 48 30
0.178475 0.225684 2.184604 62 83 56
0.186882 0.227305 2.185530 74 90 69
0.196993 0.224203 2.185057 45 57 51
0.204132 0.230086 2.180025 24 34 35
0.128946 0.212587 2.180432 84 107 57
0.136984 0.215094 2.185053 33 41 24
0.144729 0.213398 2.186643 57 71 43
0.157674 0.215492 2.186473 29 43 25
0.166238 0.216888 2.184544 43 61 35
0.173671 0.217941 2.187203 49 68 35
0.185809 0.214544 2.185584 90 116 56
0.201874 0.219463 2.184996 16 18 16
0.116537 0.206966 2.183845 1 1 1
0.126137 0.203663 2.188675 6 9 6
0.137870 0.204971 2.188160 32 45 29
0.146518 0.203861 2.186334 36 52 32
0.154854 0.205715 2.185668 43 61 35
0.166634 0.205272 2.185622 70 97 48
0.177073 0.207066 2.184807 89 117 52
0.185989 0.205199 2.188313 64 81 42
0.196615 0.207090 2.185296 54 63 39
0.205484 0.205933 2.186583 21 24 14
0.108498 0.194960 2.183544 2 3 1
0.117133 0.193690 2.185695 4 6 5
0.127754 0.195144 2.184601 36 51 33
0.137355 0.197347 2.185118 45 63 37
0.146781 0.195752 2.185712 53 79 42
0.156156 0.193560 2.186522 68 97 49
0.167268 0.195892 2.183325 81 106 52
0.175813 0.196476 2.185892 72 91 51
0.188255 0.195690 2.185441 28 35 20
0.198810 0.197028 2.183411 6 7 4
0.205046 0.192392 2.186231 1 2 1
0.106772 0.185908 2.182639 4 7 5
0.117021 0.186466 2.182822 32 44 30
0.126702 0.185952 2.183884 42 63 34
0.137835 0.186340 2.184665 67 98 51
0.147156 0.185364 2.184654 67 99 47
0.158230 0.184901 2.185794 61 84 40
0.166002 0.186506 2.185845 57 75 38
0.174153 0.185813 2.184150 29 38 19
0.185818 0.183607 2.185185 8 10 6
0.197488 0.185811 2.187405 0 0 0
0.203124 0.188910 2.188488 1 1 2
0.060600 0.171754 2.181340 1 1 1
0.067382 0.170827 2.185390 3 5 3
0.073828 0.170839 2.188632 9 13 9
0.097392 0.174135 2.184877 8 14 8
0.109268 0.173689 2.185277 40 59 36
0.117488 0.173747 2.183364 31 45 27
0.128043 0.174589 2.184772 58 84 46
0.138268 0.174714 2.184944 66 93 46
0.147901 0.173446 2.184637 57 80 41
0.157457 0.174655 2.186446 34 47 23
0.167040 0.176274 2.184049 14 20 10
0.177138 0.178801 2.184183 3 7 4
0.188282 0.177167 2.185434 1 1 1
0.194889 0.173917 2.189287 0 0 1
0.037067 0.161806 2.186858 6 11 8
0.051641 0.162182 2.189579 5 7 5
0.061247 0.162198 2.188161 3 3 3
0.067297 0.163016 2.184911 11 16 10
0.076179 0.165107 2.186285 9 14 9
0.086240 0.165840 2.188394 13 22 14
0.096371 0.165328 2.186538 35 54 34
0.106166 0.164834 2.184639 51 76 42
0.119932 0.164706 2.183963 61 90 48
0.127360 0.164993 2.185642 65 97 52
0.136946 0.166259 2.184113 59 84 44
0.147880 0.164497 2.184556 35 49 25
0.155341 0.165855 2.184440 5 8 4
0.165133 0.168591 2.183473 1 2 1
0.173710 0.169721 2.184246 3 7 3
0.024470 0.154411 2.181459 9 12 9
0.036161 0.153567 2.187238 29 46 34
0.049204 0.152840 2.182979 2 3 2
0.058357 0.154845 2.184393 12 18 12
0.067232 0.155312 2.184376 20 32 21
0.077408 0.156942 2.184601 28 46 29
0.087516 0.156388 2.185296 48 74 43
0.096948 0.155752 2.186862 56 88 48
0.107387 0.154612 2.184572 60 93 50
0.118808 0.154437 2.183960 71 102 57
0.128137 0.154845 2.182201 46 66 36
0.137153 0.156269 2.185222 37 53 29
0.147237 0.155850 2.185925 19 26 13
0.155232 0.152614 2.189593 4 7 4
0.024929 0.146030 2.180633 31 50 35
0.038411 0.144027 2.184368 41 63 43
0.047250 0.147222 2.182073 12 20 13
0.056648 0.145313 2.184908 36 56 36
0.066863 0.145787 2.183979 42 68 43
0.076903 0.146126 2.185900 53 85 53
0.086910 0.145004 2.184321 58 93 51
0.097784 0.146498 2.186179 58 96 51
0.107124 0.145705 2.184423 60 96 50
0.117170 0.145371 2.186408 45 69 41
0.126425 0.146805 2.183981 40 56 32
0.137737 0.144844 2.186383 17 25 14
0.146987 0.146132 2.185491 17 32 12
0.027458 0.134394 2.182062 13 19 13
0.036658 0.136334 2.185675 39 61 41
0.048836 0.136414 2.182914 44 70 43
0.056772 0.134179 2.183927 50 78 48
0.068245 0.135941 2.184267 51 81 48
0.077367 0.135318 2.185186 52 83 49
0.087811 0.135194 2.186742 55 83 47
0.097917 0.135365 2.185285 44 74 43
0.107775 0.134432 2.181902 32 52 29
0.117102 0.134957 2.186308 12 21 12
0.125250 0.137839 2.185066 11 17 10
0.134125 0.137189 2.184439 1 3 3
0.142504 0.140047 2.184937 2 3 3
0.016864 0.121420 2.189893 4 7 4
0.026304 0.126051 2.182606 50 72 48
0.035757 0.127545 2.184206 53 85 53
0.046713 0.125985 2.185232 47 78 46
0.055636 0.123837 2.184306 56 87 48
0.068306 0.124479 2.182490 51 78 46
0.077570 0.125232 2.184538 43 66 38
0.086706 0.124798 2.186099 29 48 27
0.097502 0.126055 2.186415 19 30 21
0.107257 0.128677 2.185271 8 15 9
0.120496 0.126450 2.181548 1 1 2
0.123781 0.130146 2.183946 1 1 2
-0.001436 0.114786 2.187112 0 0 1
0.007781 0.113433 2.183398 12 17 12
0.017450 0.117316 2.183876 25 38 25
0.026793 0.116901 2.187588 42 64 36
0.036751 0.117778 2.182871 62 95 55
0.048355 0.115471 2.184349 47 73 43
0.056073 0.114253 2.184945 34 51 31
0.067408 0.115878 2.184232 28 41 27
0.077708 0.117169 2.184400 16 26 16
0.087191 0.116612 2.185045 9 15 10
0.095114 0.113599 2.185922 5 8 8
0.108667 0.115167 2.181465 9 12 10
0.116123 0.115980 2.186373 3 6 4
-0.018412 0.101798 2.187249 2 2 2
-0.009782 0.105553 2.189207 4 10 9
0.001424 0.105164 2.185749 18 26 18
0.007698 0.104197 2.184863 35 61 42
0.017104 0.104653 2.185488 51 79 49
0.025461 0.105638 2.185492 57 91 48
0.033838 0.105875 2.188131 61 93 47
0.047414 0.105287 2.183605 29 46 29
0.057493 0.106870 2.184191 24 36 21
0.066410 0.106755 2.185232 11 20 12
0.076239 0.105986 2.184898 1 2 1
0.085357 0.110342 2.189638 2 5 2
-0.022794 0.097003 2.183999 9 10 11
-0.002173 0.094321 2.183293 45 64 40
0.009293 0.096600 2.183414 52 87 56
0.019013 0.093571 2.185801 57 93 51
0.028170 0.094529 2.186013 56 89 47
0.038406 0.095116 2.184411 39 63 36
0.048168 0.094028 2.186878 27 41 24
0.060163 0.097486 2.186142 4 7 4
0.068513 0.096610 2.183450 4 8 5
0.077270 0.095351 2.186390 1 1 1
-0.023783 0.086321 2.183867 25 33 31
-0.015572 0.087850 2.182270 42 56 47
-0.005933 0.084320 2.180799 58 89 49
0.009151 0.088400 2.181740 55 91 52
0.016055 0.085435 2.184480 49 82 48
0.026559 0.086346 2.185197 43 68 40
0.037630 0.086074 2.186687 19 34 20
0.046275 0.086975 2.187050 8 15 9
-0.008688 0.071331 2.182563 24 29 36
0.018605 0.077707 2.183787 34 55 37
0.026249 0.076691 2.183996 11 20 12
0.036151 0.076151 2.184713 2 5 3
0.007327 0.061551 2.181825 17 31 26
0.014997 0.065325 2.185385 25 43 37
0.022574 0.068987 2.189108 12 26 18
0.009953 0.052364 2.188275 23 35 36
0.209675 0.250727 2.193080 1 0 1
0.178113 0.245047 2.192799 4 4 5
0.186449 0.246608 2.190708 5 5 5
0.195923 0.246714 2.190909 19 19 16
0.206022 0.246170 2.195671 3 3 3
0.150162 0.233003 2.191275 116 135 86
0.154951 0.236628 2.192441 141 152 121
0.181212 0.233698 2.194524 25 30 21
0.189613 0.233997 2.194397 67 74 61
0.198421 0.239121 2.192657 41 46 48
0.205589 0.234113 2.196608 23 24 24
0.147974 0.225925 2.192739 50 64 32
0.156339 0.224029 2.194034 4 7 4
0.165638 0.225187 2.195985 16 22 13
0.176115 0.226915 2.194991 48 60 37
0.185576 0.226072 2.195940 86 99 68
0.197154 0.224275 2.193449 103 107 90
0.205208 0.221313 2.195825 68 69 63
0.138591 0.213475 2.191227 3 5 3
0.148294 0.215557 2.192572 21 29 16
0.157003 0.214102 2.195503 48 63 36
0.165905 0.214271 2.195648 52 68 37
0.177383 0.215558 2.196645 75 93 53
0.198570 0.214555 2.196121 60 65 51
0.206002 0.211426 2.195881 9 9 8
0.137415 0.201192 2.194820 2 2 2
0.148134 0.205875 2.190738 30 42 25
0.155634 0.205641 2.192365 37 52 30
0.165771 0.207618 2.194170 54 74 36
0.177728 0.205258 2.196257 84 105 54
0.186953 0.200943 2.194039 64 75 49
0.197102 0.208321 2.197186 44 47 36
0.210154 0.208837 2.196138 5 5 4
0.212791 0.202033 2.196924 0 0 0
0.116682 0.193891 2.197300 2 3 2
0.126644 0.194793 2.193900 8 13 9
0.137285 0.194567 2.196466 20 30 19
0.147854 0.195290 2.197337 29 41 25
0.158314 0.196647 2.194269 60 86 39
0.166701 0.195220 2.196460 72 95 48
0.177184 0.195713 2.196931 60 75 41
0.186303 0.193490 2.195875 22 26 17
0.195958 0.196350 2.196119 7 8 6
0.206993 0.198821 2.194117 2 1 1
0.088504 0.180745 2.197399 4 9 5
0.094371 0.182389 2.199231 8 14 7
0.107742 0.184469 2.192928 3 5 3
0.117407 0.184985 2.196186 12 18 13
0.129415 0.186617 2.197693 30 45 31
0.135358 0.184909 2.195611 42 59 37
0.147202 0.184622 2.195727 54 78 42
0.158669 0.185298 2.194526 66 92 44
0.167845 0.186227 2.195734 63 82 42
0.177730 0.185895 2.195483 26 34 18
0.187518 0.185696 2.195445 3 4 2
0.199833 0.189496 2.193929 1 0 1
0.203963 0.189415 2.193768 1 1 0
0.078217 0.175016 2.192060 11 14 11
0.087645 0.174774 2.194072 8 12 8
0.096911 0.174992 2.194787 16 25 16
0.106272 0.175800 2.194398 27 41 26
0.117428 0.176128 2.195286 38 58 38
0.127083 0.176816 2.196177 52 76 46
0.138271 0.173932 2.196300 50 75 36
0.146196 0.176095 2.194395 62 93 44
0.155977 0.175060 2.197037 70 100 51
0.165658 0.177287 2.194544 40 55 29
0.176351 0.178718 2.195092 2 3 3
0.184924 0.177213 2.197593 8 10 13
0.201983 0.180278 2.198835 0 0 0
0.046340 0.165390 2.194996 15 27 19
0.053315 0.169087 2.199798 19 32 23
0.070168 0.163185 2.193767 9 13 10
0.076770 0.165669 2.195351 7 12 9
0.086684 0.165094 2.195931 25 38 25
0.097946 0.165296 2.195631 39 61 39
0.106040 0.165730 2.194224 51 79 48
0.115203 0.166159 2.197815 59 89 53
0.126441 0.165813 2.195091 60 91 44
0.135518 0.165203 2.195263 64 95 48
0.146757 0.165909 2.195003 62 87 47
0.159155 0.166237 2.195561 36 50 27
0.165401 0.166217 2.197414 18 25 14
0.175417 0.167160 2.197777 5 7 5
0.188838 0.169670 2.190926 1 0 2
0.048356 0.154171 2.193721 19 29 19
0.054997 0.156097 2.195735 31 50 33
0.069045 0.155737 2.192241 26 42 27
0.078032 0.156806 2.194920 33 54 36
0.087571 0.155313 2.194881 46 74 46
0.096946 0.155496 2.195577 51 80 48
0.106801 0.155108 2.195338 59 92 52
0.116242 0.155478 2.195960 62 95 52
0.127285 0.155457 2.195550 56 84 46
0.137625 0.155515 2.196458 41 62 37
0.146432 0.155594 2.196461 17 25 15
0.156574 0.160099 2.192134 18 25 13
0.166048 0.157104 2.195056 1 2 2
0.177754 0.158523 2.195984 1 1 2
0.039372 0.145846 2.190287 3 6 3
0.046955 0.145282 2.192870 33 52 33
0.056328 0.146101 2.196782 44 64 41
0.067707 0.145635 2.195264 59 86 53
0.076387 0.146551 2.192409 53 79 49
0.086906 0.145674 2.193300 49 78 46
0.096926 0.145247 2.194701 56 86 49
0.105966 0.146485 2.196088 55 84 50
0.115882 0.144818 2.194250 46 71 41
0.127379 0.145440 2.194135 24 40 24
0.136267 0.145516 2.196946 7 11 6
0.143327 0.148047 2.194200 5 11 6
0.159679 0.150031 2.190247 1 1 1
0.040603 0.136448 2.190610 41 60 36
0.049200 0.135361 2.193742 50 74 45
0.057458 0.137946 2.195617 58 85 52
0.065741 0.134753 2.194687 59 93 55
0.075992 0.136194 2.196644 54 84 51
0.087194 0.135674 2.193907 50 79 46
0.097213 0.135341 2.195462 40 62 36
0.105931 0.137186 2.196207 32 52 30
0.115420 0.135729 2.195096 11 20 12
0.125365 0.137836 2.194066 6 10 6
0.133634 0.131238 2.199618 46 62 41
-0.000549 0.121042 2.192049 55 62 49
0.021463 0.125450 2.193101 2 4 2
0.026733 0.125294 2.194790 11 18 11
0.036210 0.126875 2.196377 23 36 21
0.045524 0.125302 2.195068 54 85 48
0.058122 0.125410 2.192953 53 85 47
0.067445 0.125474 2.195616 57 90 50
0.077720 0.124948 2.194793 44 66 40
0.087225 0.125331 2.193593 25 37 23
0.096583 0.127156 2.194316 17 28 15
0.107120 0.126566 2.196298 12 18 11
0.117483 0.128527 2.195829 12 18 12
0.126398 0.125802 2.197042 40 56 35
0.000897 0.116017 2.198999 18 19 15
0.009377 0.115999 2.194345 16 23 20
0.018306 0.115490 2.193468 16 27 19
0.027467 0.115443 2.194648 32 55 35
0.035780 0.115632 2.195697 48 78 45
0.047145 0.116572 2.196858 62 95 50
0.057633 0.116243 2.193431 50 76 42
0.066536 0.115459 2.193926 35 53 32
0.075281 0.116899 2.194957 15 21 14
0.087667 0.116979 2.196076 2 3 3
0.094854 0.115871 2.193845 5 9 6
0.103652 0.115539 2.196482 7 13 6
0.125961 0.117214 2.193645 2 4 3
0.136550 0.120435 2.198768 4 7 6
-0.005071 0.107515 2.196265 4 6 4
0.007342 0.108745 2.194748 6 10 7
0.020202 0.108262 2.190381 40 72 49
0.028439 0.106804 2.193299 49 85 51
0.038291 0.107470 2.194164 59 93 51
0.048963 0.105221 2.195270 58 88 46
0.055866 0.106948 2.194679 42 62 37
0.068181 0.106316 2.194082 8 12 8
0.076435 0.109350 2.195899 4 5 4
0.085863 0.108792 2.193876 1 1 1
0.100645 0.107113 2.193551 2 1 3
-0.014828 0.095743 2.196486 3 3 2
0.028861 0.097116 2.191751 58 93 49
0.036227 0.096054 2.195334 58 89 48
0.046563 0.096301 2.195415 45 70 40
0.055832 0.096375 2.195935 23 37 22
0.067586 0.097148 2.194299 5 10 7
-0.020396 0.089274 2.191298 8 14 8
0.037262 0.086644 2.194289 29 45 24
0.048050 0.084728 2.192479 3 6 4
0.056361 0.088689 2.197149 1 3 1
0.155780 0.254993 2.205045 0 0 2
0.154633 0.243068 2.204450 7 10 5
0.193567 0.240790 2.200202 3 4 4
0.213377 0.245753 2.200048 4 5 4
0.174809 0.237445 2.200285 2 1 3
0.186084 0.232295 2.202820 1 1 1
0.195932 0.233590 2.204206 5 6 4
0.204528 0.233138 2.207712 4 5 7
0.178152 0.224266 2.208125 9 14 15
0.187627 0.225652 2.204833 15 19 16
0.196147 0.225235 2.203552 37 38 35
0.204672 0.225112 2.206250 43 45 42
0.119994 0.212910 2.207576 1 2 1
0.125944 0.214294 2.209625 2 2 1
0.162040 0.210911 2.207134 2 3 0
0.166573 0.214678 2.205584 25 29 22
0.176775 0.217063 2.205076 6 9 5
0.186445 0.215643 2.205113 81 90 70
0.195692 0.215480 2.204925 100 104 94
0.204502 0.213824 2.207224 29 31 28
0.117805 0.200723 2.202837 1 2 3
0.142120 0.202591 2.204594 7 9 8
0.145407 0.203388 2.204972 2 4 3
0.156482 0.205108 2.206340 12 18 12
0.169209 0.205504 2.205238 40 54 32
0.178318 0.206481 2.206645 72 90 52
0.186961 0.205676 2.204731 92 105 74
0.197636 0.205043 2.205503 35 38 32
0.205284 0.208508 2.204380 3 3 3
0.079791 0.192148 2.209993 3 4 5
0.098581 0.194578 2.201442 0 1 1
0.107518 0.196666 2.204242 3 4 5
0.115632 0.196934 2.205422 9 14 11
0.127156 0.194020 2.205082 27 39 26
0.136008 0.195388 2.203902 15 24 15
0.147466 0.195753 2.204428 36 52 34
0.157230 0.195484 2.203446 46 67 39
0.167184 0.194529 2.204624 61 86 44
0.177039 0.196634 2.205653 77 99 54
0.186517 0.195336 2.204250 45 53 33
0.196067 0.194999 2.204830 9 10 8
0.205429 0.197920 2.206456 13 14 12
0.069614 0.184593 2.207774 5 8 7
0.098821 0.183300 2.205535 4 7 4
0.108988 0.186609 2.203711 28 41 27
0.116745 0.184908 2.207173 30 44 28
0.127800 0.184401 2.204927 32 49 30
0.138360 0.186045 2.205820 48 72 44
0.147679 0.186135 2.204555 53 84 43
0.157504 0.183091 2.205334 61 92 48
0.166414 0.183782 2.203722 71 98 54
0.174910 0.188277 2.203640 73 93 55
0.187836 0.186448 2.204463 9 12 8
0.200461 0.185036 2.204092 1 2 2
0.202328 0.190357 2.203496 25 27 19
0.218766 0.189125 2.208769 1 1 1
0.056537 0.174807 2.204396 5 11 8
0.067714 0.176445 2.209026 26 42 30
0.081194 0.171512 2.208721 21 26 19
0.088842 0.173673 2.202952 7 11 8
0.097462 0.175638 2.205574 10 18 12
0.106472 0.175612 2.205803 28 43 29
0.118323 0.173595 2.205920 50 77 49
0.127548 0.175092 2.204860 57 88 50
0.136149 0.175788 2.204542 57 87 46
0.145998 0.176423 2.205044 61 93 47
0.157755 0.177844 2.206520 60 87 48
0.168244 0.174564 2.205487 39 51 27
0.177094 0.176543 2.203372 32 43 27
0.184453 0.177118 2.203152 10 14 8
0.193524 0.174642 2.205744 32 38 43
0.051401 0.166037 2.203279 10 16 11
0.060355 0.168611 2.204341 34 56 39
0.065893 0.167118 2.205806 28 45 31
0.074473 0.164849 2.207481 21 30 21
0.088330 0.166041 2.203489 26 40 26
0.097218 0.165535 2.205028 34 52 33
0.106230 0.165895 2.204308 44 66 43
0.115650 0.166088 2.205156 52 78 48
0.126518 0.165784 2.205950 57 87 50
0.139027 0.165868 2.205754 52 76 41
0.146582 0.164886 2.204991 43 67 37
0.157551 0.165658 2.206076 19 28 18
0.168032 0.166275 2.202623 10 15 10
