ply
format ascii 1.0
element vertex 1180
property float x
property float y
property float z
property uchar red
property uchar green
property uchar blue
end_header
0.156994 -0.013200 2.116052 114 141 52
0.169934 -0.015601 2.118049 43 48 30
0.175003 -0.013828 2.114393 10 8 6
0.156521 -0.022138 2.115763 122 151 61
0.168261 -0.022071 2.115239 91 112 47
0.177515 -0.022095 2.116146 81 92 39
0.188704 -0.024886 2.115704 51 56 33
0.156463 -0.031939 2.115321 106 133 47
0.140058 -0.003142 2.126511 35 23 8
0.148906 -0.001621 2.126365 37 38 16
0.114311 -0.009600 2.123770 2 2 2
0.130533 -0.014230 2.126668 3 3 4
0.138966 -0.012796 2.125150 38 42 25
0.145287 -0.012754 2.125258 97 118 51
0.154152 -0.011707 2.125689 110 137 55
0.166992 -0.015420 2.123911 93 107 54
0.173210 -0.012330 2.124867 51 37 16
0.113698 -0.019214 2.125088 34 38 23
0.130387 -0.019131 2.123935 6 6 6
0.139813 -0.019433 2.124903 87 102 52
0.146711 -0.020997 2.125133 117 144 56
0.154628 -0.023589 2.125851 125 154 61
0.168105 -0.022074 2.125439 101 125 49
0.176624 -0.021243 2.125265 96 103 40
0.185388 -0.021425 2.123879 82 85 46
0.128700 -0.030456 2.120305 44 50 45
0.139103 -0.028314 2.124392 72 87 39
0.148922 -0.029777 2.124528 126 156 62
0.156507 -0.031168 2.125267 103 130 47
0.139316 -0.004220 2.135688 35 22 8
0.150380 -0.002195 2.134874 47 57 30
0.157675 -0.002658 2.131447 71 92 32
0.114431 -0.007438 2.134599 0 1 0
0.131725 -0.011410 2.133766 17 20 13
0.139565 -0.012407 2.135185 38 43 25
0.145008 -0.012939 2.135321 97 116 52
0.155546 -0.015018 2.135693 112 139 69
0.165168 -0.011444 2.136721 46 58 38
0.174672 -0.014689 2.137549 0 0 1
0.113692 -0.017024 2.131450 53 51 27
0.132119 -0.019753 2.132224 41 41 34
0.139937 -0.018559 2.134398 82 97 50
0.147374 -0.020460 2.135005 117 145 57
0.155549 -0.022919 2.135406 121 152 58
0.167604 -0.021899 2.135638 101 125 51
0.177910 -0.020679 2.134524 89 98 38
0.188288 -0.023110 2.136503 43 49 30
0.139789 -0.028207 2.133829 50 61 28
0.149473 -0.029024 2.134527 123 153 61
0.157099 -0.030955 2.135155 101 127 47
0.138183 -0.004439 2.143655 22 14 6
0.149322 -0.003768 2.141699 78 100 44
0.116587 -0.008858 2.144643 0 0 0
0.130340 -0.015094 2.146717 2 2 3
0.139693 -0.012231 2.144830 31 35 20
0.145014 -0.013620 2.145506 102 121 57
0.154205 -0.013953 2.146221 95 126 59
0.166381 -0.012676 2.145413 69 89 47
0.176633 -0.011805 2.146595 36 44 22
0.186438 -0.015172 2.146942 71 63 28
0.111756 -0.017825 2.143105 44 29 12
0.129489 -0.018417 2.143484 36 36 32
0.139162 -0.018316 2.144604 63 74 37
0.147762 -0.019829 2.144852 118 146 58
0.156566 -0.022118 2.145249 116 146 52
0.166592 -0.021799 2.145559 107 134 51
0.178750 -0.020754 2.145309 97 112 42
0.188551 -0.023462 2.144965 58 67 41
0.193469 -0.021128 2.149027 40 48 23
0.140353 -0.028885 2.145335 21 24 24
0.149881 -0.028825 2.144428 121 150 59
0.158135 -0.031007 2.145022 97 122 46
0.124958 -0.003315 2.157146 82 106 67
0.140574 -0.003625 2.154271 1 1 0
0.147027 -0.004170 2.154669 117 144 65
0.156021 -0.004213 2.151067 80 102 38
0.173749 -0.005370 2.156014 73 98 33
0.130041 -0.012696 2.154146 4 6 4
0.139592 -0.012152 2.154918 23 26 16
0.145148 -0.013304 2.155370 96 113 53
0.156448 -0.012839 2.154352 92 121 44
0.168389 -0.012747 2.155309 73 95 44
0.180310 -0.012226 2.156601 76 92 42
0.186718 -0.012420 2.155861 73 79 33
0.194141 -0.009873 2.156980 88 60 21
0.131806 -0.020528 2.155929 67 69 58
0.138702 -0.018282 2.154875 53 63 33
0.148353 -0.019389 2.154788 120 148 59
0.157111 -0.021505 2.155329 113 144 50
0.165956 -0.021980 2.155841 108 138 49
0.177686 -0.022351 2.155650 103 119 45
0.185626 -0.021726 2.155329 81 101 41
0.195227 -0.020761 2.155513 26 33 17
0.150762 -0.029778 2.154173 110 136 54
0.159279 -0.030826 2.154845 95 120 45
0.167041 -0.031227 2.155195 88 112 39
0.144827 0.004729 2.166044 0 0 0
0.124261 -0.001675 2.166525 60 77 46
0.145676 -0.004637 2.166130 56 69 27
0.157136 -0.005109 2.166087 57 67 26
0.178575 -0.001250 2.166665 52 67 29
0.131637 -0.014223 2.166395 3 3 2
0.139821 -0.011961 2.164799 18 19 12
0.145667 -0.013190 2.165097 91 109 52
0.156819 -0.013644 2.165392 98 127 43
0.168744 -0.013081 2.165596 72 93 33
0.175635 -0.011864 2.164957 56 69 32
0.188255 -0.012806 2.165190 70 75 30
0.194230 -0.012833 2.167733 103 116 43
0.139090 -0.017810 2.164657 31 35 20
0.148881 -0.019051 2.164893 121 149 59
0.157506 -0.021116 2.165040 110 141 47
0.166494 -0.021210 2.165359 110 139 51
0.176951 -0.022124 2.164943 107 129 43
0.188183 -0.019868 2.165098 65 80 31
0.197522 -0.019643 2.166654 30 39 15
0.150310 -0.028612 2.164766 79 98 40
0.159163 -0.030310 2.164390 107 134 51
0.165564 -0.031191 2.165246 73 91 34
0.181821 0.006700 2.177547 42 48 31
0.121161 -0.002586 2.176077 8 11 6
0.141446 -0.004227 2.172465 0 1 1
0.146196 -0.004957 2.175775 55 60 25
0.161673 -0.004486 2.174571 75 101 36
0.178571 -0.000224 2.175788 75 96 42
0.183869 -0.003794 2.173097 51 62 34
0.193177 -0.000616 2.179324 3 4 2
0.140017 -0.011803 2.174718 12 13 9
0.146341 -0.013035 2.175109 87 104 50
0.157597 -0.013872 2.175188 100 130 40
0.168318 -0.014018 2.175361 91 116 43
0.175608 -0.012718 2.176168 51 65 27
0.187124 -0.012295 2.175608 63 70 32
0.195630 -0.010560 2.175173 65 65 26
0.131694 -0.019892 2.177042 35 34 31
0.139532 -0.017933 2.174728 28 31 21
0.149073 -0.018897 2.174824 118 145 57
0.157200 -0.021202 2.174911 113 144 50
0.166732 -0.020659 2.175198 111 140 51
0.175956 -0.020747 2.174877 99 124 42
0.188093 -0.020664 2.174680 44 52 22
0.195610 -0.017917 2.175380 61 73 38
0.207156 -0.017981 2.171789 2 3 3
0.140910 -0.027005 2.176230 96 124 41
0.149751 -0.029379 2.172871 63 79 28
0.157766 -0.030471 2.174657 107 135 50
0.166332 -0.030769 2.174962 69 86 33
0.179125 0.005905 2.185974 73 91 45
0.184709 0.009825 2.184095 13 16 9
0.140560 -0.004736 2.185838 0 1 0
0.146919 -0.004318 2.186724 42 50 25
0.153550 -0.005700 2.189463 107 136 46
0.169620 -0.003142 2.189806 0 0 1
0.177618 -0.001578 2.183349 78 102 42
0.187103 -0.001122 2.184981 37 46 27
0.196304 0.002133 2.187528 1 1 1
0.140278 -0.012018 2.184401 10 11 9
0.146915 -0.012981 2.185131 83 99 47
0.157821 -0.013551 2.184772 104 135 42
0.167264 -0.014218 2.185292 107 139 47
0.176318 -0.011839 2.185486 53 67 28
0.186954 -0.011344 2.185313 54 60 28
0.193538 -0.012305 2.185258 87 85 40
0.131854 -0.018993 2.182681 1 0 0
0.139479 -0.018233 2.184629 37 41 31
0.149358 -0.018471 2.184838 113 138 54
0.157150 -0.021210 2.184885 117 147 53
0.167443 -0.021297 2.185081 107 134 49
0.176238 -0.020187 2.184904 101 128 42
0.187653 -0.020276 2.185910 38 45 20
0.198161 -0.018747 2.183728 26 32 17
0.210086 -0.017399 2.185342 1 0 2
0.149560 -0.029770 2.184550 37 46 20
0.158386 -0.031355 2.184853 98 124 45
0.167684 -0.030615 2.184816 58 73 30
0.167897 0.009007 2.198950 77 99 45
0.178518 0.008234 2.196681 76 94 42
0.187714 0.009446 2.194803 18 21 12
0.141253 -0.004169 2.193299 31 34 32
0.147371 -0.004178 2.195143 33 41 17
0.153568 -0.004270 2.191962 108 137 46
0.171520 -0.005163 2.193968 1 2 2
0.180448 -0.003449 2.195054 81 105 45
0.187129 -0.001324 2.195196 22 27 15
0.192947 0.001869 2.190082 3 3 5
0.131249 -0.011185 2.196250 3 3 4
0.140484 -0.011403 2.194460 7 8 7
0.147199 -0.012771 2.195014 75 89 44
0.157469 -0.012318 2.194745 108 140 47
0.167712 -0.013033 2.195123 103 135 42
0.176104 -0.012193 2.195575 81 102 42
0.186712 -0.010565 2.194422 56 67 31
0.195300 -0.013132 2.196516 78 93 44
0.205295 -0.015765 2.198219 5 6 4
0.132502 -0.021540 2.190449 83 83 74
0.139468 -0.018080 2.195049 37 39 36
0.149681 -0.018579 2.194870 108 133 52
0.157018 -0.020323 2.195159 118 149 55
0.168186 -0.021731 2.195025 102 128 48
0.176133 -0.020127 2.195188 94 120 41
0.185751 -0.022148 2.196331 94 116 44
0.197972 -0.020886 2.194714 28 34 18
0.147701 -0.032699 2.192887 10 12 6
0.158907 -0.031164 2.195023 96 124 42
0.168966 -0.031005 2.194887 48 62 24
0.187274 0.015178 2.205117 11 13 9
0.161993 0.007839 2.201115 73 97 38
0.167907 0.011109 2.205921 70 91 41
0.186010 0.012128 2.205299 53 66 35
0.135738 -0.004455 2.208195 0 0 1
0.147630 -0.004033 2.204910 54 62 28
0.160482 -0.005107 2.204908 115 147 52
0.170804 -0.003772 2.205712 47 60 22
0.177609 -0.004734 2.206749 8 11 5
0.187458 -0.001627 2.205654 31 39 20
0.208283 -0.004920 2.205801 46 31 15
0.131233 -0.014817 2.204149 37 39 41
0.140567 -0.010694 2.204657 8 9 8
0.147893 -0.012543 2.204929 68 80 41
0.156575 -0.012334 2.205269 111 141 51
0.167923 -0.011542 2.204963 96 129 35
0.176241 -0.011550 2.205340 92 118 46
0.186800 -0.010145 2.205177 57 69 33
0.197105 -0.010995 2.204532 95 111 61
0.206431 -0.015516 2.201148 2 3 2
0.127690 -0.016674 2.206204 59 63 65
0.139889 -0.018176 2.204497 45 47 42
0.149189 -0.018021 2.204728 97 119 48
0.156966 -0.019628 2.205082 119 149 57
0.168595 -0.021399 2.204937 100 126 47
0.175611 -0.021143 2.205541 78 97 37
0.185938 -0.022656 2.205468 102 130 39
0.197087 -0.024287 2.207232 56 67 44
0.204358 -0.020565 2.209262 61 68 66
0.159323 -0.030715 2.204775 89 114 41
0.169676 -0.031250 2.204826 47 60 24
0.166109 0.015599 2.215442 67 80 47
0.189629 0.018009 2.216490 8 11 6
0.162330 0.013047 2.214891 78 97 47
0.167784 0.014077 2.214127 75 91 45
0.139685 -0.005148 2.216377 0 0 1
0.147027 -0.003373 2.215020 20 18 8
0.157078 -0.002735 2.215908 17 21 9
0.167642 -0.004548 2.215688 87 115 33
0.179172 -0.003698 2.215557 35 43 18
0.186404 -0.003374 2.216203 16 20 10
0.194402 -0.002324 2.217638 54 72 30
0.207773 -0.004675 2.216698 32 35 24
0.140845 -0.010977 2.213399 3 4 3
0.148485 -0.012010 2.214944 58 68 35
0.156235 -0.012430 2.215137 111 140 54
0.168065 -0.010883 2.215293 95 128 34
0.177218 -0.010467 2.214973 100 128 46
0.186661 -0.009492 2.215169 73 86 35
0.195835 -0.009006 2.214239 76 76 44
0.211248 -0.014491 2.216713 1 0 1
0.140309 -0.018406 2.213737 31 32 29
0.148144 -0.018329 2.214169 72 86 40
0.157333 -0.019104 2.214687 119 149 57
0.167790 -0.019729 2.214904 107 136 49
0.175625 -0.021897 2.215446 66 81 35
0.186455 -0.020522 2.214841 103 130 36
0.195808 -0.022182 2.215612 81 97 54
0.149933 -0.031753 2.214110 94 108 45
0.159162 -0.029734 2.214566 85 109 39
0.176676 -0.030751 2.215173 50 63 23
0.186423 0.020317 2.226797 16 20 12
0.193074 0.021128 2.225215 1 1 3
0.202293 0.004247 2.226561 61 78 41
0.142154 -0.004554 2.223456 1 0 1
0.147297 -0.004239 2.225019 11 10 5
0.157938 -0.003338 2.225976 38 47 20
0.167441 -0.004108 2.225333 96 128 35
0.178128 -0.004246 2.225940 90 116 41
0.186804 -0.002720 2.225488 24 29 14
0.195911 -0.001335 2.225689 45 57 28
0.205075 -0.004450 2.225120 91 95 60
0.217306 -0.001581 2.224999 15 9 6
0.140886 -0.011236 2.224177 2 2 2
0.148900 -0.011436 2.224700 44 51 28
0.155894 -0.012831 2.225107 110 136 56
0.168225 -0.011778 2.224967 102 134 41
0.178465 -0.009856 2.224922 101 131 44
0.185948 -0.010174 2.225683 108 133 49
0.196673 -0.009506 2.225775 56 64 35
0.208390 -0.013332 2.225565 6 7 5
0.131724 -0.017259 2.228472 0 0 1
0.141239 -0.018733 2.224515 33 35 31
0.147866 -0.018906 2.224482 54 65 32
0.158103 -0.018765 2.224802 118 148 57
0.167483 -0.018718 2.224955 110 139 50
0.176651 -0.021146 2.225155 64 77 33
0.186707 -0.020103 2.225455 96 120 34
0.194932 -0.020803 2.225283 97 122 50
0.159984 -0.028960 2.225031 81 105 37
0.168796 -0.031841 2.224382 71 93 32
0.176751 -0.030662 2.225011 38 49 20
0.181511 0.028457 2.235028 64 67 66
0.184357 0.025541 2.233222 37 38 35
0.181031 0.021426 2.233325 72 80 59
0.182706 0.021811 2.231191 42 46 36
0.182059 0.006279 2.239736 81 88 39
0.186749 0.005751 2.237762 3 3 3
0.209996 0.006127 2.235200 37 49 24
0.142627 -0.000596 2.235029 0 0 1
0.148030 -0.002481 2.235531 7 4 2
0.157850 -0.003282 2.235116 19 25 10
0.167873 -0.002391 2.235227 104 136 42
0.178022 -0.003093 2.235297 99 130 37
0.187060 -0.002360 2.235275 57 70 33
0.196108 -0.000869 2.235355 22 24 15
0.205166 0.001331 2.234734 58 68 30
0.214148 -0.001313 2.235177 48 34 15
0.140422 -0.011303 2.235472 0 0 0
0.149338 -0.010924 2.234512 26 31 18
0.156543 -0.012476 2.235248 105 129 56
0.168019 -0.011847 2.235073 108 139 48
0.178337 -0.010920 2.234758 99 130 40
0.184772 -0.009441 2.235717 107 136 50
0.199423 -0.010214 2.234311 104 120 43
0.207622 -0.011189 2.236153 25 32 16
0.212796 -0.011409 2.239182 1 2 1
0.142198 -0.016450 2.238544 0 0 1
0.148692 -0.018652 2.233371 34 42 20
0.158950 -0.018359 2.234809 114 143 55
0.167529 -0.018407 2.235104 110 140 50
0.177740 -0.020656 2.234883 56 69 30
0.185834 -0.021204 2.235810 63 72 25
0.194091 -0.020697 2.236626 108 136 38
0.207890 -0.023062 2.235500 79 110 29
0.159579 -0.028455 2.234450 57 72 28
0.168474 -0.031641 2.234690 92 119 41
0.186616 0.007234 2.246543 26 29 23
0.199379 0.007050 2.245181 34 43 24
0.207238 0.008758 2.245677 53 66 39
0.215793 0.010050 2.245243 6 8 5
0.149774 -0.003764 2.245505 4 5 4
0.158282 -0.003686 2.245166 9 11 6
0.167916 -0.001560 2.244807 91 118 41
0.177934 -0.001936 2.245231 102 135 38
0.188020 -0.002349 2.245075 87 107 45
0.195986 -0.000425 2.245138 21 25 16
0.205967 0.000157 2.243464 62 67 34
0.219622 0.001933 2.248042 65 35 13
0.223438 0.001769 2.243194 45 24 12
0.130812 -0.014677 2.245727 79 93 54
0.136734 -0.010667 2.244837 66 78 39
0.149574 -0.010707 2.244624 13 15 10
0.157536 -0.012079 2.245100 101 123 55
0.167740 -0.012215 2.244964 113 144 52
0.177784 -0.011922 2.245066 103 133 43
0.185614 -0.009685 2.245304 104 132 47
0.197176 -0.010812 2.245282 98 127 38
0.207456 -0.009282 2.245746 40 48 24
0.215769 -0.010728 2.244234 0 0 0
0.147368 -0.018390 2.243800 13 15 14
0.159029 -0.018124 2.244292 107 134 53
0.166901 -0.018323 2.244599 111 141 51
0.178846 -0.019891 2.244759 53 65 28
0.185783 -0.020088 2.245770 49 58 19
0.195892 -0.023191 2.247317 93 117 35
0.206926 -0.020789 2.245132 88 118 36
0.161762 -0.029455 2.243988 67 83 35
0.168695 -0.032076 2.244829 96 125 41
0.205432 0.014741 2.252987 39 42 39
0.177275 0.005861 2.256823 84 110 31
0.188969 0.006556 2.254821 30 36 25
0.197797 0.006697 2.255561 25 32 17
0.204558 0.009746 2.254108 33 41 24
0.149853 -0.003745 2.255869 1 1 2
0.158448 -0.003147 2.255239 19 23 11
0.168120 -0.001472 2.255201 92 118 44
0.178183 -0.001014 2.254857 99 131 37
0.188714 -0.002476 2.255018 103 130 49
0.196029 -0.000118 2.255245 43 51 28
0.205196 -0.000443 2.254910 33 40 21
0.213970 0.002179 2.255391 42 35 21
0.131340 -0.012967 2.253345 88 104 57
0.136083 -0.010682 2.254644 68 81 42
0.150106 -0.010150 2.254575 7 8 6
0.158067 -0.011355 2.254861 93 113 52
0.167016 -0.012306 2.255175 115 145 55
0.177996 -0.012183 2.255093 107 136 48
0.186395 -0.010355 2.255415 101 128 47
0.194824 -0.010552 2.255605 96 120 42
0.207161 -0.009819 2.255936 79 97 42
0.213322 -0.008558 2.258524 4 5 2
0.222719 -0.006202 2.256654 1 1 0
0.137939 -0.020514 2.258242 61 64 65
0.146057 -0.016899 2.253784 27 28 27
0.159498 -0.018369 2.254317 98 124 48
0.166959 -0.019084 2.254881 106 137 47
0.180107 -0.019863 2.254419 43 53 23
0.185068 -0.019665 2.255634 26 30 14
0.197748 -0.021438 2.254750 85 107 35
0.207663 -0.019234 2.255700 74 97 36
0.162282 -0.028846 2.253372 50 60 30
0.169637 -0.031217 2.254352 95 124 40
0.190770 0.017610 2.263969 1 0 1
0.208156 0.014504 2.267551 40 49 29
0.171143 0.004357 2.262876 100 131 38
0.177364 0.005845 2.265972 111 146 43
0.189441 0.008071 2.265584 74 95 32
0.197655 0.005977 2.265215 28 34 17
0.205083 0.008930 2.265303 42 53 24
0.134877 -0.004628 2.269542 123 152 67
0.150523 -0.002824 2.263997 1 1 1
0.157962 -0.003357 2.265442 14 18 9
0.167032 -0.001754 2.264994 67 85 35
0.177999 -0.001095 2.264973 102 134 42
0.188869 -0.002113 2.264978 103 133 44
0.196173 -0.000132 2.265340 74 91 42
0.205382 -0.000489 2.265890 30 36 19
0.213232 -0.003000 2.266244 39 45 27
0.131951 -0.011691 2.266314 58 69 37
0.132973 -0.011117 2.262185 81 97 51
0.149961 -0.010153 2.264871 8 9 8
0.158575 -0.010721 2.264792 83 100 47
0.166714 -0.011855 2.265054 115 145 56
0.177940 -0.012116 2.265078 106 135 49
0.186705 -0.011003 2.265193 97 121 48
0.196344 -0.009936 2.265795 101 127 45
0.205664 -0.010828 2.263244 90 115 46
0.218010 -0.007462 2.264452 0 0 0
0.131977 -0.019239 2.260273 22 22 24
0.133821 -0.017163 2.264736 19 21 19
0.149344 -0.016839 2.264284 25 28 25
0.160468 -0.019641 2.264089 80 100 40
0.167119 -0.019110 2.264992 107 138 48
0.179175 -0.019968 2.264666 49 63 24
0.185588 -0.019255 2.264974 16 19 9
0.197519 -0.020826 2.264514 74 97 26
0.203940 -0.020821 2.263274 45 53 22
0.158421 -0.027800 2.264168 1 2 2
0.169462 -0.031241 2.265168 85 110 37
0.193375 0.015412 2.274582 16 12 5
0.206893 0.014271 2.273542 63 77 40
0.170621 0.005984 2.275763 88 114 39
0.177288 0.005909 2.275670 106 138 44
0.187725 0.005801 2.275760 100 131 38
0.197838 0.006301 2.275408 36 44 20
0.205513 0.007365 2.276119 34 45 20
0.219490 0.005558 2.275088 8 9 7
0.133952 -0.004656 2.275348 117 145 66
0.150630 -0.001876 2.274025 0 0 1
0.157893 -0.003466 2.275167 16 19 10
0.166734 -0.002078 2.274647 64 80 34
0.177300 -0.001309 2.275246 92 119 40
0.189119 -0.002034 2.274671 108 138 47
0.196787 -0.000452 2.275173 91 113 47
0.205686 0.001051 2.275483 21 25 15
0.214964 -0.005260 2.276147 10 13 7
0.130920 -0.010735 2.274930 53 64 35
0.149214 -0.010053 2.273465 1 1 1
0.158738 -0.009873 2.274698 67 79 40
0.166628 -0.011233 2.275242 117 145 59
0.178179 -0.011381 2.275074 105 134 47
0.187090 -0.011215 2.275095 90 112 45
0.195924 -0.009819 2.275342 91 115 40
0.204568 -0.011807 2.275904 70 86 28
0.133014 -0.017172 2.270681 0 0 0
0.150920 -0.017564 2.273415 20 22 19
0.158619 -0.020067 2.274317 29 35 16
0.167788 -0.018879 2.274588 105 135 49
0.180235 -0.020229 2.274383 44 56 21
0.186956 -0.019158 2.274906 9 10 5
0.199243 -0.021990 2.275027 68 91 25
0.205120 -0.022507 2.275926 74 95 29
0.214807 -0.022437 2.279008 1 0 1
0.162401 -0.031195 2.275763 1 1 2
0.170219 -0.030396 2.274778 83 107 38
0.198872 0.036419 2.285672 13 14 14
0.188352 0.029519 2.282893 68 73 74
0.198392 0.029185 2.286258 18 18 19
0.203453 0.026339 2.288411 3 2 2
0.188802 0.019501 2.284740 69 76 76
0.196936 0.019102 2.286564 47 41 33
0.207784 0.018658 2.289634 73 91 42
0.169773 0.004553 2.282072 60 76 30
0.177690 0.006893 2.285515 81 105 34
0.188803 0.007500 2.285180 93 120 42
0.198745 0.006969 2.284724 44 53 22
0.205076 0.006402 2.286258 24 30 15
0.215736 0.005818 2.284522 59 69 47
0.151504 -0.001549 2.283169 0 0 0
0.158716 -0.003122 2.284774 15 17 8
0.167127 -0.002565 2.285122 66 83 35
0.178364 -0.001495 2.284889 94 121 42
0.188963 -0.001664 2.285019 107 137 46
0.197616 -0.000487 2.284991 104 129 52
0.206146 0.001030 2.285551 28 34 16
0.216326 -0.003416 2.283712 35 43 21
0.225626 -0.002833 2.281573 2 3 1
0.149261 -0.009173 2.283509 0 1 1
0.159202 -0.008957 2.284519 44 52 27
0.166803 -0.010377 2.285080 116 143 61
0.177830 -0.010691 2.284988 105 133 48
0.187728 -0.010744 2.285032 84 105 42
0.195161 -0.009473 2.285549 75 93 37
0.206550 -0.012765 2.285131 65 82 30
0.212718 -0.014268 2.281398 0 0 0
0.152179 -0.016929 2.284561 1 2 2
0.158001 -0.019075 2.284661 15 18 13
0.168457 -0.018615 2.285192 107 137 52
0.178521 -0.020575 2.285032 54 71 23
0.187794 -0.019310 2.284592 11 14 8
0.198133 -0.020177 2.285186 58 77 25
0.205637 -0.022398 2.286265 79 103 35
0.169705 -0.029619 2.284505 65 84 33
0.200589 0.018660 2.294216 17 12 6
0.207569 0.020387 2.296137 34 43 20
0.218881 0.017495 2.295092 50 64 33
0.168372 0.005011 2.295330 0 0 0
0.178249 0.007243 2.294644 77 99 34
0.188072 0.006237 2.295633 87 113 37
0.198847 0.007769 2.294932 73 91 37
0.205484 0.006761 2.295493 21 25 12
0.215543 0.007541 2.295929 36 43 27
0.151708 -0.001132 2.295099 1 0 1
0.159489 -0.002746 2.295115 10 11 6
0.167356 -0.002383 2.295269 69 85 36
0.178062 -0.002308 2.295158 103 131 47
0.188544 -0.002403 2.295051 109 141 48
0.197963 -0.000734 2.294862 112 140 54
0.205245 0.001510 2.295543 61 74 34
0.216043 -0.000478 2.294875 10 12 7
0.225115 -0.003112 2.294381 0 0 3
0.150524 -0.008615 2.294880 0 0 0
0.159469 -0.008837 2.294488 23 27 15
0.167338 -0.009300 2.294949 112 136 60
0.178005 -0.010153 2.294957 104 132 48
0.188001 -0.009807 2.294905 86 108 43
0.195157 -0.010334 2.295544 52 64 27
0.206677 -0.011853 2.295280 83 106 44
0.158839 -0.017369 2.294068 12 15 11
0.170124 -0.020116 2.294001 90 118 40
0.176019 -0.021912 2.295022 88 115 38
0.188274 -0.019289 2.294724 14 17 6
0.197627 -0.021143 2.295017 36 46 19
0.206399 -0.022727 2.294126 75 98 31
0.215014 -0.022940 2.293426 16 19 12
0.170121 -0.028947 2.295556 46 57 29
0.215960 0.024821 2.306266 4 5 3
0.171514 0.016058 2.307643 1 0 0
0.180027 0.015543 2.305078 104 135 41
0.200382 0.016886 2.305001 36 32 15
0.207623 0.017390 2.307804 38 43 21
0.218839 0.018778 2.305147 62 83 40
0.170071 0.006751 2.306250 1 1 1
0.177286 0.006689 2.305368 45 56 22
0.188614 0.007328 2.304867 83 106 38
0.198876 0.007412 2.305033 95 120 43
0.206432 0.006904 2.305299 31 38 19
0.216002 0.009296 2.306906 62 78 40
0.222853 0.009099 2.301386 28 32 22
0.152591 -0.005293 2.303789 0 0 0
0.160079 -0.003023 2.304701 16 19 7
0.167301 -0.003024 2.305446 65 78 36
0.177533 -0.002092 2.305062 99 125 47
0.188534 -0.003207 2.304786 108 138 48
0.198036 -0.001026 2.304846 115 143 55
0.205656 0.001553 2.305259 83 102 44
0.216859 -0.000996 2.306074 19 22 12
0.226523 0.000045 2.304415 2 2 2
0.150216 -0.007841 2.305611 0 0 2
0.158892 -0.010063 2.304320 10 12 6
0.168356 -0.008782 2.304702 104 127 56
0.177225 -0.009443 2.304914 108 137 51
0.188282 -0.008850 2.304790 90 113 44
0.195812 -0.009938 2.305161 43 53 23
0.206500 -0.011205 2.305970 69 90 29
0.157861 -0.017865 2.305232 1 1 1
0.168647 -0.021506 2.305459 50 65 29
0.174873 -0.021371 2.305047 101 131 47
0.189442 -0.018800 2.304096 14 19 7
0.196144 -0.020820 2.305722 40 42 19
0.208015 -0.021528 2.304324 86 110 34
0.217847 -0.024145 2.304247 52 73 20
0.169306 -0.027891 2.304531 17 20 11
0.216321 0.024637 2.313525 25 32 18
0.179669 0.017366 2.313896 111 142 48
0.186136 0.015666 2.314578 102 134 38
0.201158 0.017490 2.314725 12 15 8
0.206745 0.016314 2.314195 51 63 28
0.216595 0.019394 2.314942 68 89 43
0.224336 0.015459 2.316349 28 29 25
0.170809 0.006593 2.316587 24 30 14
0.177307 0.006643 2.315030 23 28 13
0.187638 0.007359 2.314358 82 107 40
0.198864 0.006907 2.315459 88 112 41
0.207415 0.007325 2.315263 52 63 30
0.215748 0.008266 2.315483 39 46 27
0.227811 0.012307 2.313558 6 7 5
0.160315 -0.003403 2.313945 1 1 1
0.167976 -0.002964 2.315121 60 72 35
0.176786 -0.002159 2.315547 105 131 53
0.188756 -0.003750 2.315387 110 140 50
0.197976 -0.001666 2.314868 110 138 52
0.205494 0.001320 2.315164 102 125 51
0.216211 -0.000415 2.315165 7 9 5
0.226483 0.001068 2.315564 9 10 6
0.159573 -0.009176 2.314738 5 6 3
0.169030 -0.008161 2.314441 96 117 51
0.176731 -0.009028 2.315001 112 141 54
0.188196 -0.008235 2.314254 87 109 42
0.196427 -0.009367 2.315050 37 46 19
0.206173 -0.010044 2.314361 80 106 31
0.215638 -0.011709 2.315270 50 60 32
0.160809 -0.019650 2.314465 0 0 0
0.171476 -0.016227 2.313529 79 110 20
0.176590 -0.020886 2.314764 101 132 45
0.190151 -0.020761 2.314411 16 19 6
0.196231 -0.021262 2.315462 51 50 23
0.207342 -0.021777 2.315876 71 92 29
0.217481 -0.023081 2.315395 44 60 18
0.170125 -0.028677 2.316297 11 13 8
0.218239 0.026283 2.323330 34 43 25
0.182160 0.017946 2.321656 115 146 52
0.184296 0.017573 2.324862 112 143 49
0.207399 0.017830 2.325104 25 29 18
0.219017 0.018005 2.324881 65 84 43
0.224313 0.018766 2.329733 63 66 61
0.236521 0.015437 2.325372 2 2 3
0.168955 0.006105 2.326301 66 84 31
0.176546 0.006848 2.325129 16 20 9
0.186398 0.007506 2.325166 80 100 45
0.198717 0.007106 2.324994 92 116 43
0.208070 0.007703 2.325238 68 82 38
0.215190 0.008681 2.325382 18 22 14
0.160203 -0.002460 2.324239 1 1 1
0.168982 -0.002702 2.324837 57 68 34
0.176627 -0.002415 2.325445 105 130 54
0.188429 -0.003623 2.325026 110 139 51
0.197661 -0.002050 2.325205 105 132 49
0.205661 0.001013 2.325013 103 127 51
0.216166 0.002111 2.326056 12 14 8
0.227491 0.002374 2.324770 5 7 3
0.160718 -0.010498 2.325549 1 1 2
0.168292 -0.008413 2.324333 71 88 38
0.177165 -0.008641 2.324625 114 142 57
0.187624 -0.008682 2.324356 73 89 35
0.197564 -0.009059 2.324632 29 36 16
0.205787 -0.009477 2.324753 41 53 16
0.216008 -0.010951 2.326373 67 82 36
0.223073 -0.015651 2.320018 2 2 2
0.160576 -0.019846 2.322320 0 0 1
0.177708 -0.022110 2.325564 94 122 40
0.188811 -0.021573 2.324461 46 51 18
0.195312 -0.021895 2.325111 19 19 11
0.208570 -0.023034 2.325987 82 103 40
0.219589 -0.022375 2.325807 59 79 25
0.223645 -0.018800 2.326994 25 35 11
0.224463 0.026141 2.334133 50 64 32
0.186738 0.016835 2.335666 75 96 33
0.209611 0.016512 2.335391 40 44 32
0.216072 0.016416 2.335972 40 51 29
0.223971 0.018818 2.335069 76 100 50
0.169602 0.005621 2.335263 10 12 6
0.177696 0.006654 2.334930 24 31 14
0.187429 0.007662 2.334369 84 105 45
0.199655 0.006768 2.335350 96 121 44
0.208603 0.007598 2.335098 89 108 48
0.215304 0.008773 2.335526 24 29 16
0.234467 0.004560 2.335909 1 1 1
0.159452 -0.001998 2.333810 0 0 2
0.169593 -0.001717 2.334597 38 46 22
0.176688 -0.002329 2.335255 105 128 56
0.188165 -0.002533 2.335064 111 139 52
0.197741 -0.001695 2.335034 99 124 47
0.205730 0.000414 2.335085 91 112 45
0.218376 0.003035 2.334255 34 40 22
0.227166 0.001705 2.334023 1 1 1
0.161742 -0.010609 2.335013 0 1 2
0.167658 -0.009376 2.334376 43 56 23
0.178280 -0.008567 2.334275 110 137 55
0.186851 -0.008714 2.334418 59 75 27
0.198071 -0.009179 2.334500 25 31 15
0.205678 -0.008027 2.335265 26 33 11
0.216974 -0.009671 2.334046 69 83 35
0.225481 -0.015101 2.338610 2 2 2
0.160776 -0.019378 2.333241 0 0 0
0.178915 -0.021277 2.335197 88 115 37
0.189187 -0.023620 2.331637 48 63 21
0.196198 -0.023218 2.334903 17 20 12
0.209915 -0.024319 2.335187 85 108 40
0.216605 -0.023812 2.335311 57 74 22
0.225456 -0.020826 2.336000 38 52 15
0.168831 -0.030814 2.336008 1 2 1
0.179730 -0.031416 2.333898 68 90 29
0.226594 0.027073 2.343722 55 73 34
0.185795 0.014976 2.347172 0 0 1
0.202227 0.017749 2.348988 120 148 66
0.210750 0.016182 2.346275 48 59 33
0.214588 0.016610 2.344934 24 30 18
0.225102 0.020340 2.345267 82 101 62
0.171087 0.006056 2.344919 18 23 11
0.177638 0.006535 2.344672 34 42 18
0.185647 0.007478 2.345115 55 69 28
0.198500 0.007273 2.345019 97 123 45
0.208777 0.007465 2.344980 105 128 55
0.215422 0.009359 2.345580 39 48 24
0.224711 0.007077 2.346586 8 9 5
0.160069 -0.001218 2.345510 0 1 0
0.170125 -0.000456 2.344469 14 17 9
0.177242 -0.001269 2.345030 94 115 52
0.187919 -0.001774 2.345141 111 140 53
0.197988 -0.000888 2.345104 97 122 47
0.206038 0.000112 2.345160 76 94 37
0.220594 0.003474 2.343464 1 1 2
0.160799 -0.011316 2.340734 1 1 1
0.168852 -0.008637 2.344555 36 47 21
0.179391 -0.008423 2.344374 101 128 50
0.186616 -0.008503 2.344427 61 80 28
0.198290 -0.008917 2.344041 8 10 6
0.205661 -0.007718 2.344353 10 13 5
0.215808 -0.008662 2.345402 97 122 45
0.224171 -0.012742 2.345077 13 17 9
0.180384 -0.019877 2.344132 80 107 32
0.183165 -0.022872 2.347913 94 125 39
0.198320 -0.023377 2.344531 10 13 7
0.210191 -0.023553 2.346111 49 62 24
0.214921 -0.023407 2.344515 90 117 39
0.224751 -0.024224 2.345439 83 106 41
0.168927 -0.030691 2.343992 0 1 1
0.180622 -0.031211 2.342750 61 80 29
0.227343 0.025927 2.353753 69 93 38
0.186227 0.014581 2.355716 0 0 1
0.201872 0.014479 2.355400 1 1 0
0.210463 0.016433 2.356237 67 78 46
0.215954 0.016800 2.355122 26 31 18
0.225073 0.019820 2.355150 83 108 55
0.171161 0.005628 2.355466 10 13 6
0.177498 0.006418 2.355224 38 47 20
0.186204 0.007914 2.355330 51 63 28
0.198555 0.006881 2.354458 103 130 48
0.208678 0.007296 2.355241 111 137 56
0.215959 0.009546 2.355180 55 66 33
0.224914 0.008124 2.354954 0 0 1
0.236529 0.007720 2.357257 0 0 0
0.161931 -0.000863 2.351056 0 0 2
0.170198 -0.000279 2.354368 7 9 4
0.177934 -0.000186 2.354807 79 96 45
0.187097 -0.001084 2.355213 108 137 53
0.198010 0.000160 2.355024 98 124 47
0.206603 0.000284 2.355007 64 80 32
0.215201 -0.001079 2.356461 36 44 18
0.227740 0.002690 2.351035 0 0 0
0.161797 -0.011056 2.353025 1 1 1
0.169407 -0.009030 2.353555 4 5 5
0.179248 -0.007755 2.353371 88 112 44
0.185403 -0.008950 2.354822 68 89 32
0.198487 -0.008406 2.354612 7 9 5
0.206859 -0.007866 2.354416 6 7 4
0.216881 -0.008524 2.354184 96 122 43
0.223164 -0.010356 2.352049 31 37 19
0.181041 -0.019382 2.353291 77 105 32
0.184763 -0.022406 2.354869 87 116 38
0.199079 -0.024940 2.354668 4 4 3
0.208984 -0.024182 2.355109 53 57 22
0.216552 -0.023252 2.355804 85 109 39
0.226099 -0.023182 2.355484 81 103 46
0.180418 -0.031278 2.354711 56 73 25
0.229210 0.027696 2.365049 71 98 38
0.187628 0.016114 2.364533 0 1 0
0.201236 0.015227 2.367151 26 26 20
0.207097 0.016769 2.364575 32 39 21
0.217612 0.016873 2.365366 26 31 17
0.226843 0.019661 2.365377 78 102 50
0.171478 0.006438 2.363073 0 0 1
0.178126 0.006584 2.365402 31 38 17
0.186514 0.008464 2.365222 60 75 33
0.198354 0.006624 2.365439 101 129 44
0.208255 0.007070 2.365224 111 139 54
0.216249 0.010239 2.365087 71 86 40
0.225286 0.009584 2.364297 12 15 8
0.171246 -0.000211 2.364125 2 2 2
0.178815 0.001135 2.364653 68 83 40
0.187116 -0.000334 2.365173 109 137 54
0.198136 0.001047 2.364898 97 123 47
0.206952 0.000444 2.364931 57 71 29
0.214594 0.000152 2.366282 30 37 17
0.224304 -0.000969 2.367887 23 28 15
0.170283 -0.008420 2.364203 2 3 2
0.177469 -0.008966 2.364593 58 75 33
0.185949 -0.009281 2.364359 76 99 37
0.199538 -0.008627 2.364341 1 1 2
0.206592 -0.008021 2.364877 16 18 9
0.215874 -0.010528 2.366921 80 101 35
0.228758 -0.011642 2.365650 8 10 6
0.181066 -0.019135 2.365963 74 104 31
0.186631 -0.021758 2.366319 97 127 43
0.200428 -0.023785 2.364314 15 15 14
0.207253 -0.023729 2.365104 28 32 14
0.217284 -0.022728 2.365328 89 113 40
0.226175 -0.023123 2.365101 61 77 38
0.178054 -0.026045 2.364223 73 98 31
0.230482 0.028042 2.374359 74 103 42
0.236147 0.025539 2.376243 24 25 22
0.177657 0.015610 2.370501 0 0 0
0.189718 0.016543 2.375789 26 34 13
0.196677 0.016357 2.376751 10 11 8
0.208188 0.016104 2.376112 73 89 38
0.218804 0.016879 2.375461 34 42 22
0.226573 0.018849 2.374182 45 58 31
0.171833 0.005501 2.373605 1 1 1
0.179019 0.006508 2.375212 24 29 14
0.186796 0.007932 2.375243 63 78 35
0.198242 0.006052 2.375827 107 136 51
0.207904 0.007237 2.375079 111 139 53
0.216285 0.010285 2.375150 86 105 47
0.224835 0.011256 2.375553 4 5 3
0.167936 0.001641 2.376113 0 0 1
0.179202 0.001719 2.374188 48 57 30
0.187163 0.000931 2.375121 105 131 55
0.198225 0.001629 2.374676 93 118 45
0.207299 0.001040 2.374782 53 66 28
0.214930 0.000885 2.375369 21 25 11
0.228771 0.000571 2.375417 10 13 8
0.165763 -0.007908 2.372443 1 3 3
0.176168 -0.006175 2.374380 36 45 30
0.188006 -0.009451 2.373763 77 102 36
0.197184 -0.007725 2.374450 55 73 25
0.205390 -0.008814 2.375654 23 23 8
0.214542 -0.006220 2.379929 0 0 1
0.226668 -0.006360 2.375357 45 53 28
0.179826 -0.024649 2.375612 72 98 31
0.187996 -0.020983 2.373553 96 129 43
0.197930 -0.024849 2.375150 18 23 12
0.207267 -0.022266 2.374540 54 51 22
0.220014 -0.022465 2.375252 94 120 42
0.224790 -0.025026 2.374487 60 74 30
0.234681 0.034513 2.382662 65 82 40
0.195650 0.025247 2.385519 1 0 2
0.213896 0.025634 2.384944 3 5 3
0.230023 0.027609 2.385763 63 87 36
0.234529 0.028754 2.384902 41 55 23
0.177088 0.017571 2.388121 0 0 1
0.188558 0.016388 2.383255 24 31 13
0.196129 0.017939 2.385834 22 28 13
0.208332 0.017515 2.385208 55 69 30
0.219164 0.016708 2.385133 47 56 28
0.225466 0.018258 2.385500 31 41 20
0.170207 0.007404 2.383738 25 35 7
0.179456 0.006797 2.385064 14 17 8
0.186708 0.007056 2.385679 68 83 40
0.198556 0.005969 2.385273 107 135 52
0.207868 0.007483 2.385187 106 134 51
0.216806 0.010214 2.385236 87 107 46
0.225837 0.011438 2.385513 6 8 4
0.167966 0.002081 2.383180 1 0 1
0.178965 0.001494 2.383723 25 31 17
0.187887 0.001506 2.384497 100 124 54
0.197402 0.001589 2.384272 86 110 43
0.207747 0.001059 2.384525 37 46 21
0.215040 0.001509 2.385083 11 14 6
0.223071 -0.004489 2.385551 109 133 47
0.172565 -0.013574 2.380129 1 0 1
0.176517 -0.008746 2.385696 25 34 11
0.188319 -0.009454 2.384311 76 101 38
0.197464 -0.007203 2.384061 1 0 1
0.207691 -0.008681 2.385570 8 9 8
0.227967 -0.006834 2.385857 71 83 40
0.233644 -0.009943 2.389703 5 7 6
0.236700 0.035984 2.397522 64 87 38
0.198607 0.026287 2.395306 2 2 2
0.218232 0.025162 2.394581 8 9 6
0.229388 0.025959 2.395221 52 68 37
0.234514 0.029460 2.396635 76 103 47
0.180609 0.016635 2.398366 0 0 2
0.187998 0.015330 2.395631 0 0 1
0.195142 0.018151 2.395777 33 42 20
0.209751 0.017187 2.395113 68 85 37
0.219235 0.016698 2.395266 66 80 38
0.225153 0.017740 2.395577 15 19 9
0.172278 0.005753 2.399018 0 0 0
0.180309 0.007912 2.394506 9 12 4
0.187594 0.007435 2.395057 65 79 38
0.197844 0.006769 2.395123 106 133 53
0.207935 0.008021 2.395026 103 130 51
0.216819 0.010062 2.394992 82 101 43
0.225696 0.010598 2.394089 13 16 7
0.178668 0.000058 2.393717 14 18 7
0.189113 0.001497 2.394540 88 111 47
0.196524 0.001568 2.394785 81 105 41
0.207914 0.001050 2.394567 22 28 14
0.215808 0.001679 2.394441 10 12 6
0.224989 -0.002152 2.394940 103 124 50
0.179297 -0.008231 2.394089 18 25 5
0.188856 -0.010949 2.394769 79 102 45
0.196144 -0.007300 2.393468 28 39 13
0.211445 -0.012452 2.396216 1 3 4
0.212787 -0.008013 2.398930 0 0 1
0.232548 -0.007735 2.391475 10 12 7
0.233785 -0.008801 2.397887 17 20 11
0.236880 0.036668 2.405129 65 89 35
0.199134 0.025576 2.403207 81 105 41
0.219694 0.025106 2.405677 36 44 27
0.225896 0.025548 2.405272 45 53 35
0.235861 0.030399 2.405216 72 98 43
0.181586 0.015546 2.401866 0 0 0
0.189746 0.016125 2.405398 6 8 4
0.195554 0.017710 2.406153 29 36 19
0.209798 0.017626 2.405428 66 83 32
0.218904 0.017107 2.405280 87 105 49
0.225192 0.018000 2.405163 20 24 14
0.235562 0.017573 2.406887 2 3 2
0.243369 0.015978 2.409604 1 0 1
0.180533 0.008649 2.404133 7 9 5
0.188652 0.008711 2.404915 56 68 34
0.197445 0.007832 2.405190 103 130 53
0.207962 0.009005 2.405088 101 127 50
0.216940 0.010188 2.404968 75 93 39
0.225034 0.009322 2.405580 13 17 6
0.180227 -0.000236 2.404721 11 13 8
0.189134 0.001811 2.403936 65 83 37
0.195998 0.001861 2.404581 70 91 35
0.207759 0.001106 2.404740 11 14 8
0.216211 0.001825 2.404154 6 8 4
0.222891 0.001358 2.405607 36 46 16
0.181154 -0.008720 2.404171 0 0 1
0.184230 -0.009548 2.402630 8 10 6
0.238541 0.037112 2.415864 69 96 37
0.200718 0.025069 2.414430 0 0 0
0.211507 0.024618 2.419833 0 0 0
0.219047 0.026282 2.416433 43 53 30
0.225995 0.025687 2.415067 26 34 18
0.236457 0.030697 2.414313 72 93 47
0.189351 0.015810 2.415527 7 8 4
0.196001 0.017562 2.415696 30 38 18
0.208874 0.017248 2.414785 78 100 40
0.218883 0.016790 2.415224 102 125 56
0.225503 0.019176 2.415393 34 42 21
0.234489 0.019420 2.414592 0 0 1
0.171979 0.011477 2.413539 0 0 1
0.179785 0.010697 2.414978 0 0 1
0.189249 0.010051 2.414612 40 49 25
0.196983 0.009033 2.415067 96 121 53
0.207683 0.010109 2.414950 97 122 48
0.217084 0.010654 2.414868 67 83 36
0.224895 0.010261 2.415462 17 22 8
0.233389 0.011319 2.414231 1 1 1
0.180655 0.000915 2.414171 0 0 1
0.186914 0.001116 2.414392 39 49 28
0.196909 0.001898 2.414560 46 60 22
0.208299 0.001679 2.414271 8 10 4
0.216212 0.002272 2.415262 3 3 3
0.202357 -0.006192 2.417785 0 0 0
0.213746 -0.012912 2.419922 130 160 83
0.217733 0.035266 2.428767 1 0 4
0.240036 0.037602 2.424747 75 104 42
0.200855 0.025456 2.426120 4 5 5
0.210800 0.025186 2.425795 19 25 14
0.218287 0.027137 2.425651 48 62 35
0.226047 0.026032 2.425601 13 16 10
0.237726 0.030974 2.424596 50 59 39
0.242744 0.032407 2.425591 5 6 4
0.189782 0.016069 2.425763 12 16 7
0.196365 0.017274 2.425413 35 44 20
0.209251 0.016361 2.425650 96 123 48
0.218041 0.017037 2.425173 103 128 55
0.225561 0.019613 2.425128 44 53 27
0.234179 0.017951 2.424833 0 0 0
0.182172 0.009208 2.423993 0 0 1
0.189681 0.011177 2.424372 18 22 12
0.197424 0.010528 2.424750 89 110 51
0.207794 0.011311 2.424820 92 117 47
0.217050 0.011141 2.424850 59 73 33
0.224970 0.011307 2.425006 13 17 7
0.233588 0.011999 2.427258 0 0 0
0.187577 0.000697 2.425231 31 39 25
0.198555 0.002754 2.424570 30 39 18
0.207822 0.001103 2.425574 20 26 12
0.216454 0.002352 2.424529 0 0 1
0.211495 -0.008422 2.423347 131 160 83
0.213115 -0.011356 2.422609 129 160 82
0.219507 0.034992 2.435283 2 1 4
0.200972 0.026431 2.434081 0 0 0
0.207718 0.026739 2.436156 11 14 8
0.217057 0.027291 2.435188 40 51 25
0.226522 0.026325 2.435459 12 15 9
0.237324 0.031027 2.435797 42 52 35
0.180949 0.015789 2.435062 0 0 0
0.190530 0.016308 2.434776 3 4 2
0.197266 0.017044 2.435601 42 52 26
0.208281 0.015823 2.435781 104 132 54
0.217663 0.017362 2.435271 102 128 54
0.225773 0.019502 2.435115 49 59 30
0.233895 0.019622 2.435148 1 1 1
0.190173 0.011396 2.434331 6 9 4
0.198275 0.011868 2.434313 77 95 46
0.207293 0.011547 2.434600 80 103 43
0.217687 0.011409 2.434429 38 47 23
0.224887 0.011712 2.434878 8 10 5
0.188988 0.000068 2.434031 47 56 43
0.197506 0.002438 2.433056 42 53 31
0.208419 0.002347 2.435651 1 1 1
0.214704 0.001438 2.436696 84 104 53
0.218349 -0.009753 2.434169 125 156 78
0.218094 0.034907 2.444396 26 33 20
0.200275 0.026822 2.447044 0 0 1
0.206643 0.026738 2.444665 8 10 5
0.217685 0.027643 2.444254 42 52 27
0.226869 0.026918 2.445118 21 26 15
0.233334 0.029256 2.444220 32 40 27
0.190940 0.018211 2.444010 0 0 1
0.198603 0.017513 2.444959 43 53 28
0.207888 0.016912 2.445167 100 127 54
0.217707 0.018233 2.444968 96 121 53
0.225665 0.019375 2.445198 50 62 30
0.235248 0.018697 2.445226 0 0 0
0.189385 0.010775 2.443836 9 13 4
0.198522 0.012085 2.443548 60 74 36
0.207158 0.011603 2.444386 57 73 32
0.217901 0.010919 2.444572 16 19 10
0.225106 0.012334 2.443984 7 9 4
0.192424 -0.000196 2.444245 82 99 77
0.199330 0.002964 2.444393 52 65 39
0.213202 0.003639 2.441010 1 2 2
0.204678 -0.012284 2.446975 92 122 42
0.209885 0.035330 2.456471 0 0 0
0.218397 0.035973 2.456486 60 72 44
0.226153 0.034628 2.457388 0 0 0
0.239326 0.036034 2.454961 65 80 53
0.249599 0.038926 2.459416 0 1 1
0.200379 0.026255 2.455781 2 2 2
0.206008 0.026372 2.455441 11 14 7
0.218706 0.027425 2.455700 56 70 33
0.226519 0.027568 2.455292 32 39 22
0.234787 0.030247 2.455852 45 59 32
0.190889 0.020047 2.454861 0 0 0
0.199355 0.018973 2.454548 30 37 21
0.207400 0.018596 2.454926 90 113 52
0.217795 0.019499 2.454951 92 115 52
0.225877 0.019680 2.454774 41 51 25
0.236074 0.019801 2.455724 1 2 1
0.190752 0.011058 2.455566 2 1 2
0.198360 0.011402 2.454354 19 23 14
0.207647 0.011753 2.454616 33 42 21
0.217374 0.011842 2.454392 6 7 4
0.225246 0.011816 2.453952 0 0 1
0.197978 0.000403 2.455982 83 101 73
0.208961 -0.002932 2.454469 76 102 35
0.207993 -0.009724 2.452990 93 123 40
0.209870 0.035394 2.464636 0 0 1
0.218703 0.036236 2.464061 74 93 49
0.224958 0.034831 2.464471 0 0 1
0.236478 0.036991 2.465543 72 88 57
0.246459 0.039086 2.464823 12 15 10
0.191199 0.025062 2.465188 0 0 3
0.200065 0.025824 2.465705 2 3 3
0.207384 0.027502 2.465516 10 13 8
0.218661 0.026516 2.465866 81 101 48
0.226242 0.027833 2.465136 48 59 31
0.235104 0.028899 2.464746 35 46 25
0.192563 0.020556 2.467117 0 0 1
0.199873 0.020516 2.463749 12 15 10
0.207803 0.020417 2.464737 79 97 49
0.217783 0.020832 2.464874 88 112 51
0.225821 0.019978 2.464750 34 42 22
0.235366 0.020292 2.464502 1 1 1
0.187509 0.009875 2.460642 0 0 1
0.199524 0.011121 2.464697 9 12 8
0.208078 0.012064 2.464195 18 23 12
0.217832 0.012719 2.464219 0 1 1
0.225327 0.012729 2.466243 0 0 0
0.211851 0.035182 2.474587 0 0 1
0.218402 0.037120 2.475729 17 22 12
0.226851 0.036389 2.475296 30 37 23
0.237907 0.037490 2.474569 44 54 36
0.245295 0.042284 2.474460 3 5 3
0.200378 0.026364 2.473785 1 1 1
0.208278 0.027102 2.475736 23 28 16
0.218209 0.026653 2.475881 89 112 53
0.226218 0.028274 2.475110 60 74 39
0.234962 0.028051 2.475287 26 33 20
0.200946 0.021488 2.473926 4 5 3
0.208726 0.021743 2.474075 64 78 43
0.217923 0.021802 2.474422 80 100 48
0.226130 0.021236 2.474872 27 34 18
0.234793 0.021725 2.475669 1 1 1
0.198289 0.011506 2.475679 1 1 1
0.207290 0.013686 2.473700 19 24 16
0.218137 0.011902 2.472885 2 1 2
0.228289 0.013778 2.476168 0 0 1
0.247424 0.002283 2.478497 112 136 56
0.225256 0.045290 2.485211 61 72 54
0.210210 0.035262 2.482915 0 0 1
0.218628 0.036864 2.485139 4 5 3
0.226448 0.036683 2.485171 27 34 21
0.236625 0.037164 2.481597 52 64 41
0.244392 0.042486 2.484486 32 39 27
0.200412 0.026502 2.483508 0 0 0
0.209321 0.027631 2.484767 26 31 19
0.217994 0.027189 2.485247 86 107 55
0.225984 0.028057 2.485342 63 77 41
0.235786 0.027372 2.484674 7 9 5
0.243333 0.027896 2.484287 1 1 1
0.200187 0.022412 2.484593 13 16 12
0.208973 0.021756 2.483573 39 47 27
0.217827 0.021229 2.484204 44 55 28
0.226653 0.021664 2.484522 14 17 10
0.235141 0.022242 2.484576 0 1 1
0.198508 0.011360 2.482619 1 0 2
0.204801 0.013480 2.484457 12 16 11
0.221268 0.012888 2.480711 2 1 3
0.225713 0.012272 2.482736 0 0 2
0.249282 -0.001005 2.487560 101 125 47
0.224847 0.045677 2.492995 46 54 36
0.209093 0.036138 2.495587 0 0 1
0.218659 0.036478 2.495474 8 10 7
0.226597 0.037195 2.495184 28 35 21
0.233717 0.035530 2.497285 0 0 1
0.202166 0.027495 2.494915 38 45 30
0.209513 0.029131 2.494044 12 14 9
0.218386 0.029215 2.494902 74 90 50
0.226127 0.028483 2.495164 61 75 42
0.235045 0.027571 2.495974 4 5 4
0.199433 0.022967 2.492327 4 5 4
0.208453 0.020078 2.493898 35 43 25
0.218677 0.021911 2.494231 13 16 10
0.226915 0.021621 2.494426 4 4 3
0.237159 0.023588 2.493016 0 0 3
0.206489 0.013222 2.495430 1 2 1
0.224819 0.013755 2.490448 0 0 3
0.247002 0.001669 2.491846 99 124 49
0.226275 0.046378 2.505404 82 97 62
0.235515 0.050554 2.507514 47 53 41
0.212128 0.036221 2.504948 1 0 1
0.219383 0.036808 2.505551 12 15 9
0.226283 0.037412 2.505497 36 43 26
0.233489 0.035914 2.505800 0 0 1
0.209835 0.030608 2.503190 11 14 9
0.219214 0.030890 2.504279 57 68 41
0.226332 0.029802 2.505167 62 74 44
0.234994 0.028491 2.505422 7 10 5
0.208847 0.020400 2.505162 3 4 3
0.218809 0.022252 2.503225 0 0 1
0.226606 0.022433 2.505154 1 1 1
0.234051 0.021741 2.502864 100 131 61
0.229276 0.045338 2.516126 42 53 31
0.236144 0.050672 2.514765 47 58 37
0.219631 0.037065 2.514366 12 14 10
0.226327 0.037492 2.515734 43 50 33
0.234387 0.038241 2.515970 20 27 15
0.207651 0.030451 2.514706 5 7 4
0.219372 0.030961 2.513703 30 36 22
0.227476 0.030865 2.514686 48 55 36
0.234540 0.029749 2.515358 2 2 3
0.209400 0.023763 2.510612 0 0 1
0.222550 0.023228 2.519635 0 1 2
0.228123 0.023202 2.514174 1 1 1
0.245355 0.055180 2.526714 1 1 2
0.229296 0.045103 2.525879 0 0 0
0.236001 0.049864 2.525491 66 81 50
0.220122 0.038660 2.523736 4 5 4
0.228173 0.038078 2.524989 47 52 39
0.234099 0.037961 2.527149 27 32 21
0.201283 0.030024 2.521388 0 0 0
0.220906 0.030587 2.523010 27 30 21
0.229364 0.031382 2.524167 16 18 13
0.234122 0.031783 2.525713 1 1 2
0.227524 0.022666 2.525110 0 1 1
0.243411 0.055336 2.533356 7 8 8
0.231024 0.045015 2.533020 1 1 1
0.236495 0.050515 2.534111 101 123 75
0.220080 0.039417 2.531725 1 1 1
0.229403 0.039175 2.532825 34 36 29
0.234083 0.037450 2.533230 28 30 25
0.219741 0.030282 2.530526 1 0 2
0.230118 0.031489 2.532996 8 9 7
0.233526 0.032079 2.533027 5 7 4
0.228366 0.023324 2.534157 0 0 0
0.244859 0.056251 2.544700 35 40 30
0.231240 0.048710 2.545915 12 14 11
0.241106 0.051611 2.544845 103 128 78
0.229064 0.041251 2.540680 52 68 33
0.233316 0.038613 2.541458 50 62 35
0.231251 0.028501 2.540667 10 10 9
0.235153 0.032891 2.541957 50 65 30
0.242538 0.049731 2.552272 104 135 75
