ply
format ascii 1.0
element vertex 1291
property float x
property float y
property float z
property uchar red
property uchar green
property uchar blue
end_header
0.297972 -0.088661 2.883907 35 48 20
0.305822 -0.086858 2.884403 90 123 44
0.299703 -0.044514 2.895093 3 4 3
0.308542 -0.045475 2.890228 100 130 55
0.291807 -0.052261 2.892225 70 82 53
0.297931 -0.053658 2.895486 21 25 15
0.307529 -0.053178 2.894732 62 79 36
0.319062 -0.053696 2.894246 55 71 32
0.325060 -0.054909 2.895355 3 4 3
0.289720 -0.063269 2.894858 27 35 17
0.298424 -0.063080 2.894657 101 127 51
0.307430 -0.061982 2.894915 117 148 59
0.317694 -0.062328 2.894739 115 141 65
0.325541 -0.061991 2.895319 13 16 9
0.333562 -0.061810 2.895917 0 0 0
0.289435 -0.070104 2.894960 21 26 14
0.297603 -0.069431 2.895041 102 128 51
0.308027 -0.070512 2.894972 94 125 38
0.317306 -0.070987 2.895005 109 135 58
0.326552 -0.070282 2.895517 39 48 22
0.335091 -0.070313 2.894839 68 86 46
0.288585 -0.076744 2.895745 8 12 6
0.298571 -0.078821 2.894300 71 91 39
0.309712 -0.079422 2.894348 81 105 38
0.317910 -0.079128 2.895551 57 71 31
0.325224 -0.079298 2.895984 14 17 9
0.336909 -0.085079 2.896261 0 0 1
0.299397 -0.089543 2.894607 25 32 19
0.309558 -0.087228 2.893605 90 124 41
0.326445 -0.087195 2.894906 4 5 3
0.300683 -0.045673 2.902585 4 6 4
0.303259 -0.044756 2.906310 2 3 4
0.270949 -0.053090 2.901833 18 23 14
0.278608 -0.052993 2.902013 72 90 42
0.288418 -0.053452 2.903385 101 129 50
0.298448 -0.054152 2.904766 35 45 24
0.304855 -0.054560 2.904070 26 33 16
0.318256 -0.053789 2.904424 77 101 44
0.326424 -0.053829 2.905318 31 40 18
0.279301 -0.059487 2.903588 26 33 16
0.289783 -0.062933 2.904668 25 32 15
0.298443 -0.063303 2.904601 91 114 47
0.308116 -0.062767 2.904783 116 146 59
0.318124 -0.062838 2.904463 122 150 67
0.325803 -0.062061 2.905277 44 54 27
0.333922 -0.061807 2.906108 2 2 2
0.279820 -0.074595 2.904205 0 0 1
0.289938 -0.070286 2.904641 11 14 8
0.297440 -0.069686 2.905028 97 120 51
0.307925 -0.070468 2.905019 95 125 39
0.317042 -0.070571 2.905124 113 142 57
0.326228 -0.069535 2.905586 54 66 33
0.335980 -0.071239 2.906135 28 34 21
0.344120 -0.074433 2.906883 16 19 15
0.288818 -0.077335 2.905218 1 1 1
0.298204 -0.078747 2.903546 60 77 33
0.309031 -0.078672 2.904646 64 85 28
0.318396 -0.079182 2.905004 90 111 46
0.325726 -0.080165 2.905613 26 33 15
0.333913 -0.081731 2.905552 1 1 1
0.311163 -0.089523 2.905579 69 96 32
0.316884 -0.087051 2.905834 80 110 35
0.326948 -0.087842 2.906675 5 6 4
0.335197 -0.088181 2.909799 1 0 1
0.303455 -0.045346 2.916080 1 2 3
0.330251 -0.045771 2.910553 102 133 62
0.298867 -0.054124 2.914829 43 56 32
0.307545 -0.053975 2.914721 43 55 22
0.319812 -0.051924 2.913784 74 96 42
0.326821 -0.054202 2.914029 22 29 13
0.335203 -0.054686 2.919371 80 109 37
0.290922 -0.063929 2.914803 16 20 10
0.298300 -0.063386 2.914937 80 100 44
0.308046 -0.062957 2.914917 113 141 58
0.317875 -0.063173 2.914459 118 148 61
0.326483 -0.062405 2.914857 67 82 39
0.334639 -0.061622 2.914112 0 0 1
0.282326 -0.066663 2.913810 0 1 2
0.290245 -0.070284 2.914920 6 8 5
0.297337 -0.069815 2.915032 85 105 46
0.307718 -0.070193 2.914927 104 135 46
0.317164 -0.070871 2.914961 106 136 49
0.326809 -0.069489 2.915244 78 93 47
0.335857 -0.070754 2.916179 21 25 15
0.343650 -0.074944 2.917155 38 46 29
0.281092 -0.078779 2.910356 1 0 2
0.288466 -0.077411 2.914652 0 1 1
0.297091 -0.077595 2.915186 44 57 24
0.308064 -0.078554 2.915044 77 103 32
0.318864 -0.079526 2.915027 106 134 53
0.325952 -0.081349 2.915697 49 60 28
0.335228 -0.080514 2.915703 0 1 1
0.344407 -0.077388 2.918539 4 5 4
0.309339 -0.089692 2.916437 42 56 22
0.317852 -0.088629 2.915682 74 101 34
0.326348 -0.087098 2.916501 7 9 5
0.335794 -0.088574 2.915741 0 0 1
0.343683 -0.088366 2.914973 1 0 2
0.305645 -0.044993 2.925385 1 2 2
0.299406 -0.054244 2.922832 62 80 42
0.308422 -0.052080 2.925682 78 104 33
0.322231 -0.053482 2.922240 36 46 19
0.325558 -0.054752 2.925425 33 43 18
0.335262 -0.055037 2.922774 39 54 18
0.290578 -0.063659 2.925162 2 2 2
0.298526 -0.063076 2.925101 66 82 38
0.308254 -0.063435 2.924661 104 129 54
0.317801 -0.063607 2.924767 118 148 60
0.327189 -0.062724 2.924653 82 101 46
0.334931 -0.061501 2.925328 3 4 2
0.290253 -0.070705 2.924717 3 4 3
0.297653 -0.069906 2.925016 76 93 42
0.307695 -0.070094 2.924994 110 140 51
0.317482 -0.071611 2.924975 102 133 45
0.327013 -0.070116 2.925221 105 127 61
0.335568 -0.070755 2.925458 13 16 9
0.289296 -0.077263 2.924779 0 0 0
0.297604 -0.077776 2.925074 41 52 22
0.308233 -0.078542 2.925167 91 120 40
0.319006 -0.079271 2.924997 103 134 46
0.326842 -0.081563 2.925244 78 97 43
0.335380 -0.080843 2.925632 13 15 9
0.342921 -0.078925 2.926020 0 0 0
0.306600 -0.087945 2.923504 20 26 13
0.320134 -0.090072 2.924328 70 94 34
0.327430 -0.087797 2.925574 26 34 14
0.336470 -0.088248 2.924945 4 5 3
0.346112 -0.091261 2.926480 0 0 0
0.335554 -0.095953 2.927414 0 0 2
0.306531 -0.045194 2.934101 1 1 2
0.299472 -0.052939 2.933795 66 82 50
0.310659 -0.052049 2.935059 105 139 44
0.317771 -0.052107 2.934651 96 126 40
0.325668 -0.053757 2.933044 23 29 12
0.290308 -0.063177 2.935486 2 3 2
0.298547 -0.063388 2.934895 53 66 31
0.307433 -0.063141 2.934533 79 99 43
0.317947 -0.064109 2.934611 111 140 54
0.328350 -0.063133 2.934748 88 108 48
0.334882 -0.062814 2.934865 6 8 4
0.290289 -0.071037 2.934833 3 4 3
0.297983 -0.070372 2.934941 63 77 36
0.307476 -0.070386 2.935017 114 144 55
0.317556 -0.071457 2.935053 107 138 49
0.327767 -0.070619 2.935019 117 143 66
0.335664 -0.071885 2.935525 25 30 15
0.288403 -0.078497 2.936081 0 1 1
0.297505 -0.078237 2.934580 30 37 18
0.308240 -0.079560 2.934776 94 121 44
0.319319 -0.079213 2.934714 91 122 35
0.326907 -0.081351 2.935150 104 131 53
0.335661 -0.080599 2.935693 34 41 22
0.347318 -0.079608 2.934593 2 2 2
0.311234 -0.088924 2.934962 41 54 25
0.321153 -0.089138 2.933398 55 71 32
0.328630 -0.088378 2.935163 52 66 28
0.335655 -0.089057 2.935885 8 10 5
0.344235 -0.092609 2.936967 0 1 1
0.322185 -0.097993 2.938562 80 108 42
0.324854 -0.100916 2.938096 59 75 39
0.336702 -0.099440 2.937213 4 6 3
0.260445 -0.033053 2.949245 104 130 55
0.301812 -0.051362 2.945197 36 43 28
0.309003 -0.050035 2.944647 70 91 32
0.316279 -0.054532 2.947335 94 128 32
0.326583 -0.053795 2.940149 0 0 1
0.290535 -0.062706 2.944752 1 2 1
0.298049 -0.063144 2.944270 39 50 24
0.306148 -0.063118 2.945270 67 85 37
0.316068 -0.063609 2.944846 106 133 56
0.327605 -0.063407 2.944399 97 119 51
0.336199 -0.063434 2.944885 25 31 16
0.342734 -0.063298 2.942592 0 0 0
0.290280 -0.070840 2.944651 0 1 1
0.298358 -0.070710 2.944887 48 59 28
0.307237 -0.070912 2.945015 114 143 56
0.317574 -0.071410 2.944998 114 145 54
0.328003 -0.071298 2.944850 124 152 68
0.335932 -0.071989 2.945270 58 70 34
0.343909 -0.075050 2.945282 1 1 1
0.290789 -0.078340 2.945024 0 0 1
0.299119 -0.077841 2.945189 51 63 29
0.308227 -0.079119 2.944963 106 134 51
0.318904 -0.079499 2.944595 91 123 35
0.326956 -0.081118 2.945075 104 134 48
0.336575 -0.080410 2.945249 56 68 34
0.344400 -0.082250 2.945383 1 1 2
0.310842 -0.088924 2.944659 60 79 30
0.317662 -0.090432 2.945302 41 54 24
0.329591 -0.088476 2.945069 82 103 45
0.335571 -0.089525 2.945575 30 38 18
0.344073 -0.092059 2.946180 14 18 9
0.318057 -0.104357 2.947846 78 105 48
0.327953 -0.100059 2.945401 58 77 36
0.338205 -0.098384 2.944208 1 2 2
0.256921 -0.032862 2.954391 105 132 54
0.304811 -0.049417 2.955603 16 20 13
0.315244 -0.054042 2.954065 103 137 42
0.289737 -0.061844 2.955979 0 0 1
0.298381 -0.062629 2.954654 35 45 22
0.305963 -0.063178 2.954916 62 79 32
0.316039 -0.062601 2.954992 91 112 50
0.328672 -0.062502 2.953889 83 103 45
0.336821 -0.063651 2.954906 32 40 19
0.343065 -0.064760 2.959248 0 0 0
0.290448 -0.070741 2.954442 1 2 1
0.299085 -0.070858 2.954732 36 44 22
0.307288 -0.071287 2.954985 111 139 57
0.317463 -0.071769 2.954905 117 148 57
0.327459 -0.071886 2.954855 123 152 64
0.336363 -0.072013 2.955165 83 101 48
0.344582 -0.073866 2.956100 1 1 1
0.289289 -0.078920 2.954995 0 0 0
0.296875 -0.077842 2.954610 8 10 6
0.308664 -0.078342 2.955167 107 136 50
0.318979 -0.079572 2.954712 104 136 46
0.327525 -0.081078 2.954879 100 131 43
0.337270 -0.079942 2.955321 80 98 46
0.345231 -0.082003 2.955973 2 3 2
0.310917 -0.087378 2.959025 114 148 51
0.317805 -0.088879 2.955630 73 98 31
0.329441 -0.089102 2.955042 96 121 50
0.336296 -0.090333 2.955303 55 69 32
0.344751 -0.089709 2.955885 10 14 6
0.318247 -0.100209 2.954520 28 38 16
0.330377 -0.098476 2.955346 57 76 32
0.337857 -0.098608 2.956521 15 20 9
0.347024 -0.097666 2.953770 1 0 1
0.352674 -0.098242 2.952619 1 1 2
0.305723 -0.050337 2.965545 24 30 18
0.313142 -0.054954 2.963664 112 146 54
0.299150 -0.063371 2.964026 23 29 16
0.306211 -0.063080 2.965075 52 66 28
0.317351 -0.060088 2.964840 65 83 34
0.328221 -0.063548 2.964712 94 114 53
0.336677 -0.062978 2.964852 34 43 19
0.345363 -0.064873 2.969721 1 2 4
0.291028 -0.069517 2.963918 7 9 7
0.299542 -0.070994 2.964702 17 20 11
0.307227 -0.071876 2.965094 101 125 54
0.317228 -0.072216 2.965026 119 149 60
0.327666 -0.072549 2.964822 122 153 63
0.337109 -0.072059 2.964825 97 118 55
0.344444 -0.072738 2.965391 5 7 3
0.291590 -0.078488 2.963588 0 0 0
0.296287 -0.077488 2.965096 4 5 3
0.309152 -0.078144 2.965155 109 138 53
0.318955 -0.079867 2.964956 112 143 54
0.327995 -0.081325 2.964833 99 130 42
0.337259 -0.080194 2.965357 101 124 58
0.344774 -0.080864 2.965317 29 36 17
0.311771 -0.089634 2.965323 115 149 52
0.318224 -0.089347 2.964508 96 128 41
0.329684 -0.089006 2.964953 94 122 45
0.336637 -0.090775 2.965096 80 100 44
0.345232 -0.090300 2.966376 12 16 7
0.319242 -0.101514 2.966443 1 0 2
0.329180 -0.098071 2.965346 25 32 14
0.337891 -0.098640 2.965993 24 31 13
0.344958 -0.098337 2.965934 2 2 2
0.311663 -0.045446 2.971443 0 0 1
0.306291 -0.051833 2.973754 34 42 26
0.298719 -0.062872 2.973968 27 35 19
0.307462 -0.063437 2.975084 50 64 26
0.317887 -0.060926 2.974604 83 108 41
0.326689 -0.063451 2.974767 109 133 61
0.338062 -0.064538 2.974959 59 75 34
0.346137 -0.065466 2.973387 0 0 3
0.290634 -0.066618 2.974084 1 0 2
0.300009 -0.070985 2.974532 7 8 5
0.307548 -0.072058 2.974993 85 104 47
0.317123 -0.072131 2.974945 118 148 60
0.327642 -0.073242 2.974537 121 152 62
0.337710 -0.072321 2.974711 108 134 59
0.345066 -0.072203 2.974946 36 45 21
0.291014 -0.079404 2.974281 0 0 0
0.299046 -0.077528 2.975057 6 8 5
0.309250 -0.078031 2.975225 101 127 51
0.318477 -0.079378 2.975117 113 145 54
0.327878 -0.080992 2.974928 105 136 48
0.337318 -0.080541 2.975018 115 142 64
0.345243 -0.080756 2.975279 39 48 24
0.353127 -0.081223 2.975716 0 0 1
0.312053 -0.087728 2.973050 123 153 62
0.318187 -0.091060 2.974924 103 136 46
0.329646 -0.088760 2.975188 96 127 40
0.336555 -0.091043 2.975189 102 128 54
0.345968 -0.090613 2.975565 23 29 15
0.354499 -0.091076 2.975358 32 43 17
0.321716 -0.102526 2.970436 1 0 2
0.329820 -0.099275 2.974652 17 22 11
0.337873 -0.098760 2.975633 36 46 20
0.345361 -0.099091 2.975946 8 11 5
0.340345 -0.106398 2.971678 0 0 0
0.344920 -0.106929 2.976199 0 0 2
0.312398 -0.045726 2.980300 1 0 0
0.306402 -0.053072 2.984616 39 50 30
0.299376 -0.063867 2.984208 1 2 1
0.308054 -0.063154 2.984479 46 59 27
0.317577 -0.062350 2.985547 102 132 47
0.327546 -0.061759 2.984605 99 132 47
0.337776 -0.064397 2.985861 29 35 18
0.342811 -0.064355 2.985856 1 1 1
0.291269 -0.070891 2.987016 1 1 2
0.299857 -0.070752 2.984167 2 3 2
0.307816 -0.072027 2.984899 63 77 37
0.316571 -0.072776 2.984891 116 146 60
0.326995 -0.073334 2.984665 119 149 61
0.337939 -0.072399 2.984657 108 135 58
0.345685 -0.072147 2.984912 64 78 36
0.353482 -0.071315 2.985579 0 0 3
0.299046 -0.078010 2.985031 4 4 3
0.309023 -0.077514 2.985074 87 108 46
0.317828 -0.078893 2.985118 114 145 56
0.328020 -0.080339 2.984879 113 145 55
0.337604 -0.080980 2.984906 121 150 66
0.345823 -0.081408 2.985208 64 78 38
0.354269 -0.080944 2.984806 0 0 1
0.312427 -0.088567 2.988243 117 147 57
0.318250 -0.090999 2.984517 112 144 52
0.329302 -0.088860 2.984988 96 128 39
0.336851 -0.091012 2.984975 107 137 52
0.346846 -0.090387 2.985307 47 58 29
0.353792 -0.090780 2.986124 1 1 2
0.320782 -0.096820 2.988610 103 137 43
0.329608 -0.099343 2.984124 39 50 21
0.338390 -0.099336 2.985514 59 75 33
0.346127 -0.099914 2.985738 22 27 13
0.353661 -0.099523 2.988030 0 0 1
0.348051 -0.108405 2.987299 0 0 1
0.309069 -0.053669 2.995277 42 51 31
0.317535 -0.047751 2.996670 2 3 4
0.300044 -0.060872 2.994754 0 0 0
0.307794 -0.062954 2.994094 52 67 32
0.317245 -0.062786 2.994696 79 103 40
0.324439 -0.064057 2.996613 95 129 37
0.338406 -0.063924 2.995454 39 47 23
0.343339 -0.064805 2.992472 2 1 3
0.300222 -0.070335 2.994106 3 4 3
0.308571 -0.072110 2.994678 46 55 28
0.316479 -0.072759 2.995082 111 138 59
0.326274 -0.074001 2.994603 120 151 63
0.338395 -0.072388 2.994647 105 132 55
0.346297 -0.072654 2.995066 82 102 44
0.354137 -0.070028 2.995345 28 36 16
0.299652 -0.078916 2.994312 9 12 6
0.308541 -0.077360 2.995174 57 70 33
0.317624 -0.078328 2.995216 113 143 57
0.327745 -0.080425 2.994942 116 148 58
0.337504 -0.081065 2.994964 122 152 65
0.346441 -0.081705 2.995175 82 101 48
0.353863 -0.081348 2.996149 0 0 1
0.310491 -0.092158 2.994030 118 148 59
0.319856 -0.092967 2.993514 111 145 50
0.329672 -0.088966 2.994656 102 135 44
0.337395 -0.091290 2.994920 105 136 48
0.347204 -0.090171 2.995223 72 89 42
0.355155 -0.091347 2.995683 2 3 2
0.309865 -0.096270 2.998344 120 150 62
0.321678 -0.097812 2.996481 105 139 46
0.328332 -0.098979 2.994855 74 100 33
0.339083 -0.099463 2.995033 86 107 46
0.346355 -0.100190 2.995258 48 59 28
0.355191 -0.099231 2.995738 16 20 10
0.331422 -0.108138 2.998089 0 0 0
0.339035 -0.107055 2.996783 20 27 10
0.348484 -0.107621 2.996721 0 0 1
0.353452 -0.106315 2.999717 1 1 3
0.309938 -0.051472 3.000363 5 6 4
0.313100 -0.053559 3.004742 44 56 36
0.300938 -0.063009 3.002837 0 0 1
0.308968 -0.062210 3.004053 50 67 32
0.315096 -0.064065 3.003983 26 32 15
0.325660 -0.064175 3.006313 97 130 42
0.339370 -0.063072 3.004676 28 34 17
0.299699 -0.069570 3.004334 6 7 5
0.309240 -0.072237 3.004567 26 31 17
0.316577 -0.072902 3.005188 99 122 55
0.325841 -0.074162 3.004356 115 146 60
0.338425 -0.072616 3.005005 103 129 52
0.346234 -0.072853 3.005156 80 101 41
0.354745 -0.070704 3.003879 35 41 21
0.300376 -0.080350 3.004951 6 8 4
0.308643 -0.077812 3.004704 26 31 17
0.317788 -0.078382 3.005194 111 138 58
0.327817 -0.080076 3.004884 118 149 59
0.337802 -0.081324 3.004926 121 152 63
0.346813 -0.082321 3.004948 102 124 58
0.354585 -0.081940 3.005525 7 9 4
0.307168 -0.095694 3.000651 116 146 58
0.320233 -0.090651 3.006851 91 119 44
0.329918 -0.089697 3.004746 109 141 50
0.337421 -0.091351 3.004966 98 130 41
0.347012 -0.090343 3.005108 101 125 57
0.354973 -0.091167 3.005299 7 9 5
0.364604 -0.094759 3.004270 0 1 2
0.320831 -0.096923 3.003561 114 148 53
0.326914 -0.099598 3.005588 90 120 36
0.339645 -0.099452 3.005070 99 126 51
0.346419 -0.101010 3.005266 76 94 44
0.354977 -0.099586 3.005716 4 5 3
0.339704 -0.108176 3.005260 24 32 14
0.347243 -0.108155 3.005828 20 27 12
0.355286 -0.108707 3.007056 0 0 1
0.312751 -0.051100 3.013535 2 2 4
0.301417 -0.065718 3.013736 48 62 34
0.308487 -0.061301 3.015146 64 85 42
0.316187 -0.062064 3.015229 43 58 25
0.327776 -0.062553 3.013618 97 124 52
0.338509 -0.064123 3.014732 42 51 26
0.343215 -0.063880 3.017715 107 135 64
0.300621 -0.068305 3.014707 1 2 1
0.309837 -0.072193 3.014358 7 9 5
0.316894 -0.072884 3.015038 75 92 43
0.325788 -0.074069 3.015437 114 144 60
0.338862 -0.072742 3.014588 101 126 52
0.347164 -0.073501 3.014599 75 95 38
0.356884 -0.070677 3.015184 52 63 31
0.301643 -0.080538 3.015151 0 0 1
0.308669 -0.078942 3.015074 7 9 6
0.318318 -0.078483 3.014911 102 126 57
0.327250 -0.079555 3.015213 118 149 60
0.337660 -0.081547 3.014774 120 151 62
0.347574 -0.082644 3.014831 112 138 62
0.355368 -0.082409 3.015082 22 27 12
0.318472 -0.090297 3.014382 52 68 28
0.329598 -0.090449 3.014251 111 144 53
0.338004 -0.091490 3.014721 98 129 40
0.347655 -0.090346 3.015172 117 145 64
0.355562 -0.090272 3.015683 19 24 12
0.327818 -0.099883 3.014544 95 125 41
0.339821 -0.099389 3.015062 99 129 45
0.346610 -0.101294 3.015123 101 125 55
0.355772 -0.099665 3.015320 18 22 12
0.340375 -0.109178 3.014691 16 20 11
0.347401 -0.108886 3.015848 37 47 21
0.354847 -0.108422 3.015614 2 2 2
0.349875 -0.116049 3.017733 0 0 1
0.361124 -0.116559 3.019613 0 0 0
0.311918 -0.053412 3.025950 10 12 9
0.316419 -0.050249 3.025428 1 1 1
0.302080 -0.065568 3.020005 52 68 38
0.307326 -0.061714 3.025300 68 87 48
0.317382 -0.062448 3.025288 41 55 25
0.328288 -0.064526 3.023622 92 123 43
0.340571 -0.064130 3.026995 30 37 20
0.345627 -0.063077 3.026396 108 135 66
0.301875 -0.069072 3.024105 2 3 1
0.310202 -0.072023 3.023971 2 3 3
0.317212 -0.073023 3.024851 48 58 29
0.325454 -0.073749 3.024698 106 135 54
0.337716 -0.072880 3.024124 102 127 53
0.347346 -0.072935 3.024185 66 82 36
0.355691 -0.072641 3.025429 54 66 31
0.364328 -0.066559 3.020325 2 3 2
0.300291 -0.081893 3.021789 0 0 1
0.309120 -0.080016 3.024356 2 3 2
0.318757 -0.078437 3.024930 85 104 49
0.326812 -0.079986 3.025149 117 147 60
0.337832 -0.081809 3.024895 119 150 62
0.347903 -0.082402 3.024862 115 143 61
0.355659 -0.081993 3.025590 50 63 27
0.308650 -0.086221 3.023668 0 0 1
0.319117 -0.088477 3.022571 34 42 21
0.329694 -0.090897 3.025167 114 147 57
0.338557 -0.091626 3.024644 102 133 44
0.348153 -0.090283 3.025035 121 150 64
0.355712 -0.090348 3.025201 46 57 26
0.363285 -0.085902 3.027909 1 0 1
0.328787 -0.099805 3.024678 104 137 47
0.339921 -0.099322 3.024825 90 121 35
0.346443 -0.101378 3.025146 110 140 56
0.356049 -0.099984 3.025232 45 55 27
0.364907 -0.100465 3.025758 9 13 5
0.332485 -0.108451 3.024628 1 1 1
0.341057 -0.110035 3.024215 40 49 24
0.347829 -0.109339 3.025220 67 84 38
0.355601 -0.110033 3.025192 10 13 7
0.364916 -0.108935 3.026680 25 33 14
0.347620 -0.116832 3.027417 16 20 10
0.353141 -0.116717 3.025677 1 0 2
0.363046 -0.116803 3.021919 0 0 1
0.319298 -0.053828 3.033853 64 89 39
0.309461 -0.062487 3.035508 73 91 49
0.316797 -0.062042 3.034568 49 65 31
0.330621 -0.065748 3.030566 80 93 61
0.338837 -0.065623 3.035091 73 89 51
0.345617 -0.062464 3.033055 54 67 34
0.309750 -0.071279 3.034379 2 2 2
0.317926 -0.073168 3.034660 30 37 19
0.325548 -0.072977 3.035627 91 113 48
0.339678 -0.072750 3.034490 94 117 52
0.348538 -0.072502 3.034166 52 65 33
0.357295 -0.073662 3.034674 57 71 32
0.365149 -0.068970 3.035729 12 16 9
0.309806 -0.081111 3.034427 1 1 2
0.319164 -0.078807 3.034785 61 74 37
0.327055 -0.080236 3.035092 113 142 59
0.337679 -0.081654 3.035086 119 150 62
0.347448 -0.082303 3.034738 116 146 60
0.355767 -0.082184 3.035425 81 100 43
0.362818 -0.084442 3.037045 62 76 33
0.309288 -0.086887 3.037660 1 0 1
0.318408 -0.087912 3.039237 1 0 0
0.329174 -0.089305 3.034287 115 148 58
0.337588 -0.090972 3.034538 111 143 53
0.348094 -0.090457 3.034882 120 149 61
0.355776 -0.090763 3.035280 78 97 43
0.364375 -0.090208 3.036865 18 23 10
0.329117 -0.101210 3.035414 110 144 49
0.339686 -0.099758 3.034636 94 126 36
0.346677 -0.101280 3.035073 106 137 49
0.356629 -0.101031 3.035060 69 84 40
0.366124 -0.100768 3.033929 1 0 1
0.331095 -0.106017 3.039080 98 132 37
0.340234 -0.109211 3.034370 70 89 37
0.348223 -0.109731 3.035165 89 111 48
0.356113 -0.111236 3.035423 36 45 21
0.365303 -0.108877 3.036203 40 55 21
0.340009 -0.117441 3.032708 0 0 0
0.348386 -0.117479 3.035618 24 32 13
0.356814 -0.117343 3.035913 1 1 1
0.364426 -0.119527 3.038558 0 0 1
0.317416 -0.054183 3.044712 35 48 22
0.310962 -0.061988 3.043839 69 86 48
0.317268 -0.061509 3.045280 72 96 46
0.326574 -0.064890 3.046285 1 0 1
0.340437 -0.065154 3.041772 54 64 38
0.352643 -0.063859 3.047449 104 136 62
0.302612 -0.070874 3.041056 0 0 0
0.309736 -0.071829 3.044421 0 0 1
0.318604 -0.073507 3.044594 16 19 11
0.326453 -0.073226 3.044772 72 90 39
0.337981 -0.072737 3.044410 83 104 46
0.348161 -0.072036 3.044948 25 30 20
0.357892 -0.073471 3.045047 79 101 44
0.367486 -0.070326 3.046381 30 35 20
0.310441 -0.082639 3.044542 0 1 1
0.319284 -0.079315 3.044760 32 38 21
0.327436 -0.080197 3.045074 106 133 58
0.337084 -0.081637 3.045277 117 148 61
0.347106 -0.082777 3.044512 116 146 59
0.356600 -0.082107 3.045153 90 112 46
0.364206 -0.082400 3.046335 82 104 41
0.309828 -0.087830 3.044962 0 1 2
0.317957 -0.087643 3.044870 4 5 4
0.329297 -0.087949 3.045032 108 137 56
0.338081 -0.090384 3.045287 115 147 57
0.348428 -0.090609 3.044726 121 151 62
0.356497 -0.091129 3.045076 92 114 51
0.364868 -0.091267 3.045125 13 16 7
0.329055 -0.100301 3.044475 113 147 52
0.339060 -0.100325 3.044778 102 135 44
0.347489 -0.101373 3.044810 101 133 43
0.357014 -0.100598 3.045334 102 125 58
0.365141 -0.101018 3.045237 13 16 9
0.373984 -0.101237 3.042446 4 5 2
0.328365 -0.106765 3.046568 108 142 47
0.339807 -0.109382 3.045205 78 104 34
0.348621 -0.109520 3.045119 106 133 54
0.356431 -0.111566 3.045335 65 80 37
0.364658 -0.109847 3.045330 15 19 8
0.342226 -0.118504 3.041558 0 0 1
0.349011 -0.118543 3.045410 18 23 11
0.356939 -0.118023 3.045750 10 12 6
0.364321 -0.118331 3.046020 0 0 1
0.346215 -0.126627 3.045590 92 130 46
0.319722 -0.053194 3.054924 5 6 4
0.311403 -0.061786 3.054661 84 102 58
0.317138 -0.062023 3.055176 76 98 47
0.328065 -0.064069 3.052084 1 0 3
0.343957 -0.065304 3.053651 36 46 24
0.354432 -0.063123 3.052097 103 136 62
0.309019 -0.072150 3.054897 1 0 2
0.319550 -0.073821 3.054376 6 8 5
0.326820 -0.072962 3.054635 40 50 23
0.337466 -0.072167 3.054557 67 86 36
0.343779 -0.068114 3.055482 71 85 46
0.367485 -0.072371 3.055469 57 67 37
0.311831 -0.083777 3.056411 0 0 1
0.319695 -0.079775 3.054538 10 13 7
0.327871 -0.080163 3.055043 93 115 52
0.336321 -0.081877 3.055115 115 146 59
0.346164 -0.082362 3.054723 117 148 60
0.357437 -0.082223 3.054688 93 117 47
0.364490 -0.082448 3.055157 53 66 26
0.310609 -0.086746 3.051479 0 0 1
0.317809 -0.087429 3.054860 7 9 5
0.330140 -0.087234 3.055144 110 141 56
0.338108 -0.089054 3.054967 114 146 58
0.348333 -0.090709 3.054723 121 152 62
0.357159 -0.091570 3.055046 105 130 57
0.365087 -0.091643 3.055598 27 34 13
0.329886 -0.101973 3.054393 112 146 51
0.338961 -0.101172 3.054885 104 137 45
0.347846 -0.101930 3.054741 100 131 41
0.357101 -0.100363 3.055327 116 143 62
0.365518 -0.100480 3.055630 31 39 17
0.377330 -0.102924 3.056233 2 1 2
0.329822 -0.108288 3.055146 107 141 46
0.339408 -0.108079 3.055185 91 122 35
0.349250 -0.109769 3.054939 103 132 48
0.356565 -0.111940 3.055101 94 116 52
0.365337 -0.110787 3.055195 16 20 11
0.342140 -0.118674 3.050997 1 2 5
0.349941 -0.119291 3.055268 24 30 14
0.357417 -0.118690 3.055482 32 41 18
0.364340 -0.119257 3.056356 4 5 3
0.350665 -0.126037 3.057859 109 142 62
0.312166 -0.061454 3.066605 67 82 50
0.317990 -0.062275 3.064230 68 88 45
0.325767 -0.059472 3.065121 75 100 43
0.345884 -0.065057 3.064049 35 46 25
0.353273 -0.064750 3.063793 103 135 64
0.308415 -0.069799 3.064257 1 1 3
0.320305 -0.073565 3.064270 3 4 3
0.326835 -0.073410 3.064820 18 22 12
0.336690 -0.072500 3.065126 48 60 27
0.344022 -0.069299 3.065089 82 101 51
0.369371 -0.073254 3.064214 66 78 40
0.374547 -0.070430 3.069560 6 7 5
0.312342 -0.083755 3.061902 1 0 2
0.320096 -0.081055 3.064284 5 6 3
0.328330 -0.080494 3.064913 73 90 43
0.336263 -0.081997 3.065173 110 140 56
0.346678 -0.082077 3.064855 111 141 57
0.358677 -0.082798 3.064688 90 115 45
0.365535 -0.082627 3.065048 61 78 33
0.318785 -0.087312 3.063497 2 3 3
0.330754 -0.087156 3.064762 107 135 53
0.338374 -0.089155 3.064830 113 145 55
0.348362 -0.090664 3.064835 120 151 61
0.357757 -0.091695 3.064849 113 139 62
0.365512 -0.091703 3.064989 45 56 25
0.374105 -0.090709 3.067372 1 0 1
0.330874 -0.103791 3.064145 114 148 52
0.338912 -0.101108 3.064561 107 140 47
0.347938 -0.101760 3.064934 100 132 41
0.357541 -0.100770 3.065077 122 153 64
0.365529 -0.099945 3.065224 46 58 25
0.374026 -0.104071 3.065491 0 0 0
0.330270 -0.108816 3.064411 110 144 48
0.339088 -0.108977 3.065295 96 128 39
0.349589 -0.110164 3.064897 98 128 42
0.356199 -0.111679 3.065171 115 143 61
0.365517 -0.110380 3.065528 43 53 26
0.374530 -0.113654 3.064041 1 0 3
0.341153 -0.116216 3.063401 0 0 0
0.350505 -0.119634 3.065203 46 57 27
0.357698 -0.119564 3.065375 60 75 33
0.365081 -0.119716 3.065951 11 15 7
0.351191 -0.128995 3.064763 0 0 0
0.356203 -0.127387 3.066612 36 50 20
0.367595 -0.127343 3.068637 0 0 2
0.318111 -0.062813 3.074820 72 93 49
0.325068 -0.057281 3.074611 98 131 52
0.337178 -0.065515 3.075697 1 1 1
0.345310 -0.064480 3.075265 1 2 1
0.355825 -0.065168 3.074546 103 133 67
0.364304 -0.062552 3.078469 102 131 64
0.311799 -0.068646 3.072177 2 3 4
0.319574 -0.072048 3.074394 27 36 18
0.326907 -0.073867 3.074746 8 10 6
0.335561 -0.072718 3.074706 42 52 26
0.345215 -0.070446 3.074840 81 98 48
0.371864 -0.074121 3.075557 69 80 44
0.377187 -0.070543 3.076230 3 4 4
0.320112 -0.081863 3.074196 0 0 1
0.328841 -0.080788 3.074838 49 59 29
0.336519 -0.082070 3.075176 106 133 56
0.346728 -0.083176 3.075023 110 140 55
0.358113 -0.082988 3.074675 93 119 46
0.365101 -0.083208 3.075299 72 91 34
0.318245 -0.088063 3.075411 2 2 2
0.329559 -0.087057 3.075269 77 97 39
0.338536 -0.088621 3.075109 113 144 55
0.347804 -0.090784 3.074711 117 149 59
0.358076 -0.091948 3.074708 116 144 63
0.365743 -0.091254 3.075178 74 91 41
0.374046 -0.093488 3.074739 26 33 11
0.330860 -0.103537 3.071936 115 149 55
0.339447 -0.101640 3.074827 112 145 52
0.348081 -0.101314 3.074840 104 136 44
0.358473 -0.100325 3.074996 122 152 62
0.366449 -0.100324 3.075325 61 76 33
0.375062 -0.100570 3.076899 1 1 1
0.330755 -0.108738 3.074645 113 147 51
0.338484 -0.109608 3.075183 102 135 41
0.349604 -0.110701 3.074793 95 126 37
0.356158 -0.111199 3.075051 116 146 58
0.365924 -0.110818 3.074949 66 80 39
0.374860 -0.109164 3.076375 1 0 2
0.341766 -0.117592 3.075140 91 108 57
0.351090 -0.119476 3.074896 78 96 42
0.357542 -0.120004 3.075245 84 105 45
0.365822 -0.120888 3.075607 24 31 14
0.375188 -0.118423 3.076942 0 0 1
0.350695 -0.127763 3.075521 1 0 1
0.357570 -0.127903 3.075469 12 15 7
0.366500 -0.127420 3.076560 1 1 2
0.353964 -0.136631 3.078009 0 0 0
0.331237 -0.055784 3.089638 96 130 50
0.318055 -0.063259 3.084506 53 65 37
0.325566 -0.058528 3.084557 96 128 54
0.341621 -0.063053 3.084908 0 0 1
0.347092 -0.064615 3.086875 14 17 11
0.355775 -0.065030 3.087035 100 124 73
0.312284 -0.065867 3.085049 96 119 70
0.317540 -0.068194 3.085234 59 78 38
0.328764 -0.074120 3.084759 5 6 4
0.337198 -0.072714 3.084381 31 37 20
0.345517 -0.071148 3.085341 83 99 49
0.353603 -0.065859 3.080552 104 131 71
0.377645 -0.073124 3.085157 26 32 19
0.321383 -0.081488 3.085048 1 2 2
0.329343 -0.080649 3.084584 22 26 14
0.337079 -0.082121 3.085044 97 121 53
0.346413 -0.083256 3.085311 107 137 54
0.357734 -0.083449 3.084484 99 127 48
0.366660 -0.083228 3.085226 89 114 42
0.320195 -0.088570 3.084351 16 21 8
0.327887 -0.088399 3.086008 39 49 21
0.339070 -0.088274 3.084966 112 142 55
0.347285 -0.089655 3.085149 117 148 59
0.357906 -0.092528 3.084407 119 148 62
0.366055 -0.091067 3.084890 86 107 46
0.374660 -0.093603 3.085704 41 51 18
0.332345 -0.097415 3.087506 1 0 1
0.340090 -0.100592 3.084033 106 135 50
0.347772 -0.101633 3.084579 108 140 47
0.358512 -0.100365 3.085094 120 151 59
0.366360 -0.100372 3.085226 82 102 44
0.375291 -0.100639 3.085549 3 4 3
0.331047 -0.110405 3.084680 115 149 53
0.337935 -0.111436 3.085218 106 139 45
0.349097 -0.111073 3.084713 97 130 37
0.357004 -0.111112 3.084921 114 145 54
0.366627 -0.110808 3.085075 97 117 55
0.374903 -0.111829 3.086826 3 4 3
0.339406 -0.116335 3.085559 118 146 61
0.350523 -0.118919 3.084663 89 113 43
0.357195 -0.120341 3.085198 103 128 53
0.366581 -0.121650 3.085241 41 51 23
0.374778 -0.119286 3.085242 2 2 2
0.351706 -0.128441 3.086370 13 17 9
0.357056 -0.128434 3.085297 14 19 8
0.366021 -0.128227 3.085791 7 9 4
0.376157 -0.126118 3.087674 2 2 2
0.362272 -0.137052 3.088830 1 1 1
0.331603 -0.055701 3.092692 96 131 51
0.316979 -0.062317 3.093284 41 50 30
0.325959 -0.060568 3.095669 84 110 48
0.345392 -0.063792 3.096238 1 0 1
0.316969 -0.067681 3.095634 49 63 34
0.329149 -0.073802 3.094545 2 2 2
0.339200 -0.072744 3.094792 26 33 15
0.346213 -0.071924 3.096545 74 87 44
0.379703 -0.073575 3.093290 20 25 14
0.383685 -0.072082 3.096994 0 1 0
0.322138 -0.079488 3.091977 1 0 1
0.330068 -0.081006 3.094357 6 7 4
0.337756 -0.082380 3.094936 81 100 46
0.345678 -0.082896 3.095491 104 133 53
0.357181 -0.082418 3.095410 110 140 58
0.367146 -0.084182 3.094859 80 103 37
0.374619 -0.082017 3.096533 92 117 48
0.321106 -0.086835 3.094536 0 0 0
0.328082 -0.088051 3.094402 10 13 5
0.339910 -0.088318 3.094838 108 137 54
0.347235 -0.089129 3.095247 116 147 58
0.357743 -0.092469 3.094821 118 149 61
0.367002 -0.091412 3.094740 99 123 51
0.373983 -0.092246 3.096476 22 28 12
0.332228 -0.096986 3.091585 1 0 2
0.338664 -0.100625 3.095431 79 101 39
0.347684 -0.101644 3.094339 110 142 50
0.358548 -0.100407 3.094721 119 150 59
0.366840 -0.100634 3.095308 97 120 50
0.375921 -0.101033 3.095488 17 22 9
0.384938 -0.100535 3.093433 101 132 38
0.331842 -0.112100 3.095203 115 149 53
0.338003 -0.111748 3.094741 106 138 47
0.349139 -0.111151 3.094533 101 132 39
0.357720 -0.111379 3.094907 113 145 51
0.366722 -0.110418 3.095347 118 145 63
0.375257 -0.109704 3.096585 38 47 19
0.339455 -0.117014 3.096286 101 134 40
0.349723 -0.118396 3.094870 98 128 40
0.357311 -0.120722 3.095058 106 134 52
0.367249 -0.121341 3.094970 65 80 36
0.375413 -0.120039 3.095681 15 19 7
0.383041 -0.118128 3.099620 88 120 25
0.351275 -0.129190 3.094328 24 29 14
0.357577 -0.129130 3.095121 35 44 20
0.366311 -0.128834 3.095524 25 32 15
0.374239 -0.129390 3.096240 0 0 0
0.358927 -0.136895 3.098131 0 0 1
0.363818 -0.137558 3.096201 0 0 1
0.374038 -0.137472 3.095479 0 0 1
0.314739 -0.063028 3.106657 24 28 19
0.327784 -0.059666 3.104639 88 115 50
0.316773 -0.067871 3.105540 43 52 31
0.327175 -0.072761 3.104790 15 20 11
0.338753 -0.073724 3.104467 12 14 8
0.345500 -0.072776 3.105587 41 49 26
0.355338 -0.074868 3.106450 0 0 2
0.384033 -0.074645 3.105778 16 19 11
0.330833 -0.081150 3.103511 3 4 3
0.338371 -0.082405 3.104763 60 74 36
0.345821 -0.082861 3.105359 102 128 54
0.356410 -0.082919 3.104678 116 147 62
0.368045 -0.084323 3.103412 85 109 41
0.374788 -0.081879 3.104144 84 105 44
0.320666 -0.088227 3.101097 0 0 0
0.328945 -0.088321 3.104981 1 1 2
0.339652 -0.087991 3.105072 89 111 47
0.346924 -0.089183 3.105160 115 147 57
0.357630 -0.091942 3.105103 116 147 59
0.368000 -0.091811 3.104858 99 124 51
0.374085 -0.091887 3.106399 82 103 43
0.337694 -0.103005 3.105890 63 80 34
0.348642 -0.101214 3.104276 109 140 48
0.358457 -0.100108 3.104795 116 147 56
0.367441 -0.100747 3.105067 111 137 59
0.375692 -0.100983 3.105440 30 38 18
0.383507 -0.104001 3.104012 49 65 18
0.331885 -0.112646 3.102531 116 150 53
0.337509 -0.112823 3.104519 115 148 52
0.348991 -0.111558 3.104764 107 138 46
0.358498 -0.111710 3.104723 113 144 49
0.367489 -0.110809 3.104988 125 154 64
0.375477 -0.110051 3.105588 60 75 31
0.382718 -0.115398 3.103891 109 141 46
0.338802 -0.118321 3.106412 105 138 42
0.349147 -0.118691 3.105266 99 129 41
0.357808 -0.121098 3.104881 104 133 46
0.367522 -0.120839 3.105099 92 113 48
0.375183 -0.120692 3.106283 30 36 18
0.384439 -0.119495 3.104642 58 76 21
0.350291 -0.128487 3.105096 49 60 28
0.358356 -0.129568 3.105450 69 84 38
0.366911 -0.129725 3.105414 55 67 30
0.375188 -0.129538 3.105205 4 5 3
0.383968 -0.131923 3.109632 1 0 2
0.352470 -0.136844 3.105889 2 0 2
0.359537 -0.137966 3.107052 11 14 7
0.365924 -0.137342 3.106585 8 10 6
0.374330 -0.137012 3.105152 0 0 1
0.315813 -0.063097 3.114793 16 19 13
0.329275 -0.059287 3.114609 86 113 49
0.318213 -0.068014 3.116438 33 42 25
0.326676 -0.072699 3.113189 31 41 21
0.338967 -0.073884 3.114831 6 7 5
0.346138 -0.072481 3.114976 20 24 13
0.354924 -0.075283 3.111785 0 0 1
0.363080 -0.075605 3.117247 1 0 3
0.386965 -0.074785 3.112707 9 12 7
0.330675 -0.081640 3.112370 0 0 0
0.339053 -0.082243 3.114638 36 44 23
0.346012 -0.082930 3.115160 88 110 49
0.356664 -0.082352 3.115435 100 127 52
0.365835 -0.084308 3.115443 102 130 55
0.376965 -0.081434 3.114983 95 117 49
0.383266 -0.076946 3.117386 46 54 31
0.330045 -0.089364 3.114617 1 2 1
0.339148 -0.088052 3.114727 53 67 31
0.347278 -0.088827 3.115194 113 144 58
0.357445 -0.091489 3.115052 116 148 60
0.368473 -0.092278 3.114670 104 132 54
0.375052 -0.092109 3.115482 81 102 41
0.340039 -0.101078 3.115301 23 28 15
0.349240 -0.101403 3.115343 104 134 44
0.358969 -0.100123 3.114475 116 148 56
0.367833 -0.100865 3.114861 117 146 62
0.375814 -0.100913 3.115199 62 77 34
0.383840 -0.103594 3.115772 0 0 1
0.339269 -0.112992 3.114516 108 138 49
0.348713 -0.111812 3.115321 112 143 50
0.358443 -0.111460 3.114649 113 144 49
0.367836 -0.110741 3.115288 120 151 58
0.375740 -0.110548 3.115534 84 104 44
0.384486 -0.111034 3.116240 27 35 13
0.339083 -0.118922 3.115049 109 143 46
0.348085 -0.119534 3.114902 103 135 42
0.357993 -0.121434 3.114813 103 132 45
0.367922 -0.120542 3.114981 113 140 58
0.374881 -0.121225 3.115775 68 83 38
0.385841 -0.120415 3.114239 60 77 25
0.350634 -0.130077 3.114145 72 88 41
0.359055 -0.129538 3.115198 89 109 45
0.367037 -0.130454 3.115221 83 102 44
0.375330 -0.130636 3.115336 14 19 8
0.386974 -0.133060 3.117949 0 1 0
0.351608 -0.137389 3.114638 1 0 3
0.359066 -0.137645 3.115439 4 6 3
0.367589 -0.138453 3.116060 19 25 10
0.374849 -0.138656 3.115686 0 0 1
0.368429 -0.146004 3.113003 0 1 1
0.330669 -0.060034 3.124326 84 110 49
0.332901 -0.058151 3.128885 96 129 52
0.318970 -0.068013 3.125427 35 45 26
0.339435 -0.074636 3.123776 1 0 1
0.347877 -0.073626 3.124674 14 17 9
0.331467 -0.081957 3.124707 0 0 0
0.339831 -0.081721 3.124314 11 13 7
0.346560 -0.083041 3.125102 71 88 41
0.356786 -0.082272 3.125943 91 116 47
0.366361 -0.084237 3.124796 102 131 55
0.378298 -0.082768 3.125065 99 124 50
0.386406 -0.077030 3.126487 29 34 19
0.330452 -0.091182 3.123182 0 1 1
0.338957 -0.088745 3.124605 18 22 11
0.348173 -0.088975 3.125049 106 133 55
0.356967 -0.091050 3.125252 116 148 59
0.367499 -0.092243 3.124621 112 142 59
0.376118 -0.092432 3.124819 82 104 41
0.384532 -0.093990 3.127363 107 140 49
0.327779 -0.097509 3.129137 1 0 1
0.342308 -0.099196 3.121592 40 48 25
0.349195 -0.100573 3.125513 94 122 43
0.358666 -0.101038 3.125042 113 145 53
0.367907 -0.101118 3.124878 118 149 62
0.376129 -0.101015 3.125293 88 109 47
0.383573 -0.103509 3.126262 0 0 1
0.339683 -0.112633 3.125860 112 142 50
0.348269 -0.111838 3.124694 99 126 45
0.357550 -0.110691 3.125099 115 147 53
0.368697 -0.110758 3.124909 120 152 58
0.376130 -0.110894 3.125427 95 119 47
0.385148 -0.109901 3.125510 20 25 9
0.339532 -0.120147 3.125404 113 146 49
0.348434 -0.120457 3.124758 109 141 45
0.358199 -0.122189 3.124566 104 133 46
0.367379 -0.120603 3.125185 122 152 60
0.375335 -0.120565 3.125235 107 130 58
0.384997 -0.120837 3.125564 4 4 3
0.341844 -0.126723 3.120202 117 150 59
0.350537 -0.128471 3.124504 93 114 48
0.359375 -0.129854 3.125016 97 122 45
0.366791 -0.131272 3.125102 103 126 53
0.375691 -0.131073 3.125529 35 44 18
0.385531 -0.131101 3.124990 0 0 1
0.360198 -0.138548 3.125205 15 18 9
0.368156 -0.138707 3.125591 28 35 16
0.376121 -0.139023 3.126346 17 22 8
0.368065 -0.146126 3.126293 0 0 0
0.329878 -0.062928 3.135457 50 64 33
0.334046 -0.057879 3.134588 95 128 52
0.319512 -0.068159 3.135107 41 55 29
0.338686 -0.074259 3.133579 1 0 1
0.348265 -0.074154 3.134848 2 4 3
0.355565 -0.070540 3.136981 1 2 2
0.340699 -0.081730 3.134304 2 2 2
0.347444 -0.083118 3.134963 50 61 30
0.355669 -0.082875 3.135625 88 111 47
0.366618 -0.084484 3.135498 96 123 51
0.377020 -0.083387 3.133727 114 144 62
0.386103 -0.079482 3.135560 71 84 43
0.331973 -0.093045 3.137978 1 1 1
0.338761 -0.090183 3.134298 4 6 4
0.348879 -0.088670 3.134984 91 114 50
0.356447 -0.091158 3.135045 115 147 58
0.367117 -0.092497 3.135194 112 143 58
0.377518 -0.093131 3.134820 80 102 40
0.385540 -0.092155 3.135833 103 134 48
0.331544 -0.097402 3.138273 1 1 1
0.336292 -0.096338 3.130845 0 1 1
0.349936 -0.100984 3.133212 115 145 59
0.357938 -0.100418 3.134831 109 141 50
0.368246 -0.101077 3.134935 116 147 59
0.377079 -0.101398 3.135223 102 127 53
0.384622 -0.102774 3.135346 19 24 11
0.339678 -0.111430 3.135045 112 145 49
0.348038 -0.112188 3.135279 111 143 50
0.358501 -0.110611 3.134890 111 142 48
0.368967 -0.110632 3.134837 119 151 56
0.376485 -0.110641 3.135192 105 131 53
0.384637 -0.110547 3.135760 53 67 24
0.340344 -0.120804 3.134294 115 149 52
0.347863 -0.121112 3.134905 110 142 47
0.357718 -0.122068 3.134382 110 140 48
0.367979 -0.120712 3.134735 122 154 59
0.376188 -0.120120 3.135502 117 145 59
0.384198 -0.119554 3.133648 29 36 14
0.342589 -0.126619 3.134813 98 132 38
0.348908 -0.127410 3.135439 105 137 41
0.359400 -0.130634 3.134655 98 125 41
0.366632 -0.131381 3.135139 106 132 51
0.376628 -0.130852 3.135025 60 74 31
0.385954 -0.131127 3.135728 48 62 23
0.360687 -0.139123 3.134550 45 55 25
0.367628 -0.139410 3.135401 59 71 33
0.376275 -0.139578 3.135803 25 33 13
0.384171 -0.139747 3.135610 26 35 15
0.368696 -0.148551 3.135412 5 6 4
0.376607 -0.148416 3.135554 55 67 26
0.385946 -0.147209 3.137753 0 0 1
0.321369 -0.065791 3.144536 45 60 32
0.330784 -0.064053 3.143254 27 34 21
0.334996 -0.058812 3.144921 91 121 55
0.320234 -0.068791 3.145170 57 75 39
0.323136 -0.068619 3.145080 0 0 1
0.337605 -0.072572 3.142041 2 0 2
0.350259 -0.074268 3.143392 5 7 4
0.354037 -0.073534 3.148314 1 2 3
0.341386 -0.082760 3.143487 0 0 0
0.348240 -0.083110 3.144345 35 43 21
0.355805 -0.082815 3.145172 67 84 38
0.366344 -0.084024 3.144846 77 100 40
0.381407 -0.084320 3.140692 106 135 57
0.386256 -0.081937 3.146063 92 113 56
0.393223 -0.077326 3.143224 8 10 6
0.340146 -0.089922 3.144979 11 15 8
0.349508 -0.088596 3.144880 71 87 40
0.356747 -0.091011 3.145194 113 143 59
0.366405 -0.092104 3.145213 113 146 58
0.378057 -0.093373 3.144807 77 99 37
0.384737 -0.093290 3.146004 88 115 42
0.337481 -0.097178 3.143541 0 0 1
0.351036 -0.100068 3.144083 111 143 55
0.359215 -0.099677 3.144913 107 139 48
0.368142 -0.100863 3.144881 114 145 57
0.377693 -0.101710 3.144835 106 133 55
0.384235 -0.101790 3.145903 75 96 38
0.340916 -0.112588 3.143800 111 144 47
0.346957 -0.112891 3.144522 115 147 51
0.358603 -0.110076 3.144239 108 140 45
0.368899 -0.110039 3.144815 116 148 54
0.376977 -0.110812 3.145071 112 141 57
0.385632 -0.110851 3.145552 45 57 22
0.392990 -0.110207 3.148825 96 129 37
0.329080 -0.117487 3.147711 116 148 51
0.340881 -0.122756 3.144668 115 148 53
0.348091 -0.121169 3.144274 113 146 51
0.356747 -0.121610 3.144719 113 144 51
0.368600 -0.121455 3.144360 126 158 61
0.377019 -0.120053 3.145032 119 149 58
0.384476 -0.119614 3.146122 79 98 41
0.341471 -0.126535 3.146113 107 140 46
0.347584 -0.128192 3.145747 106 139 44
0.358732 -0.130742 3.144705 104 134 42
0.367305 -0.131735 3.144758 104 131 49
0.377536 -0.130828 3.145250 82 100 43
0.385486 -0.132343 3.144196 32 40 15
0.360456 -0.139201 3.144926 71 91 33
0.367694 -0.139590 3.145312 83 100 45
0.376144 -0.140326 3.145164 46 57 25
0.385472 -0.139505 3.145864 19 24 9
0.356081 -0.148474 3.147674 0 0 3
0.368896 -0.148298 3.145364 7 9 4
0.376324 -0.148553 3.145898 11 14 7
0.383780 -0.148017 3.146409 1 1 3
0.326126 -0.065227 3.155346 30 40 22
0.335568 -0.060218 3.155370 91 117 58
0.323276 -0.068596 3.154882 1 1 2
0.340724 -0.073885 3.152634 0 0 0
0.356812 -0.073850 3.155465 1 2 2
0.339311 -0.082427 3.155134 1 0 1
0.349103 -0.082989 3.154814 17 21 12
0.356539 -0.082665 3.154923 53 66 30
0.365886 -0.083668 3.154931 65 84 31
0.388233 -0.082606 3.154076 89 109 53
0.395344 -0.078642 3.153478 20 25 14
0.341031 -0.091347 3.153438 0 0 1
0.349490 -0.089190 3.154407 41 50 24
0.356889 -0.090596 3.155155 104 130 56
0.365709 -0.092175 3.155430 112 144 58
0.378218 -0.093169 3.154914 89 115 44
0.385852 -0.093806 3.155514 85 111 40
0.392895 -0.094119 3.159847 103 133 45
0.340154 -0.096685 3.156165 0 1 1
0.349925 -0.096445 3.153432 79 101 37
0.359261 -0.098200 3.155713 113 145 55
0.368629 -0.100119 3.154710 110 142 54
0.377309 -0.102183 3.154725 109 137 56
0.385102 -0.101318 3.155341 89 113 45
0.393876 -0.096842 3.159469 108 139 51
0.338831 -0.113341 3.154575 105 137 42
0.347173 -0.113328 3.154075 111 143 49
0.357696 -0.110843 3.154817 111 143 48
0.368484 -0.110047 3.154670 113 145 52
0.377652 -0.110921 3.155065 116 146 60
0.385497 -0.110745 3.155587 64 81 32
0.394241 -0.110863 3.155197 92 120 42
0.331693 -0.117687 3.155667 117 148 52
0.341310 -0.124766 3.151178 114 148 53
0.347897 -0.121767 3.154193 114 148 51
0.356828 -0.121722 3.154616 116 148 54
0.368148 -0.121711 3.154582 116 148 53
0.378226 -0.120156 3.155030 121 152 59
0.385135 -0.120042 3.156094 100 125 50
0.392837 -0.123223 3.156207 0 0 0
0.342120 -0.128191 3.154319 105 140 46
0.348289 -0.128628 3.155085 111 143 48
0.358475 -0.130967 3.154770 108 139 45
0.368586 -0.131955 3.154787 109 137 50
0.377928 -0.130697 3.155385 108 133 56
0.385529 -0.130872 3.155549 57 71 27
0.394610 -0.135031 3.153728 1 0 1
0.359914 -0.138391 3.155054 112 142 49
0.368371 -0.139760 3.155093 94 116 47
0.376572 -0.141000 3.155310 70 86 38
0.384552 -0.140039 3.155657 2 3 2
0.392656 -0.138111 3.159602 1 1 0
0.360362 -0.148837 3.155139 23 29 10
0.369376 -0.147812 3.155276 8 11 6
0.376455 -0.148503 3.155669 11 14 7
0.384646 -0.148539 3.156723 9 13 5
0.375431 -0.158308 3.155641 1 1 2
0.327569 -0.064884 3.164059 39 51 27
0.337467 -0.059765 3.165366 92 119 60
0.324126 -0.068398 3.164077 1 2 1
0.345447 -0.074766 3.163864 0 0 0
0.357957 -0.073562 3.166252 0 1 1
0.362986 -0.070483 3.164286 2 1 1
0.350069 -0.082781 3.164267 6 7 4
0.357484 -0.082674 3.165098 39 48 24
0.365350 -0.083955 3.165117 50 64 25
0.375956 -0.083574 3.166514 53 69 25
0.389617 -0.083572 3.164513 98 120 59
0.395827 -0.079721 3.164037 22 26 16
0.340845 -0.094111 3.164408 0 0 1
0.350148 -0.090181 3.164361 15 18 9
0.357923 -0.090679 3.165007 92 115 51
0.365925 -0.092355 3.165539 111 142 58
0.376262 -0.092252 3.165695 105 136 55
0.386823 -0.093571 3.165021 78 103 36
0.341595 -0.098532 3.167014 1 0 1
0.344993 -0.096567 3.163866 2 3 2
0.359707 -0.097895 3.164939 113 144 57
0.369013 -0.099886 3.165374 110 142 53
0.376990 -0.102392 3.165108 109 139 56
0.385980 -0.101714 3.165010 92 118 48
0.395943 -0.096348 3.161460 107 140 52
0.335296 -0.113817 3.165148 108 139 42
0.347741 -0.113743 3.163377 108 140 47
0.359104 -0.112112 3.165492 109 140 47
0.368850 -0.110180 3.164707 110 142 50
0.378409 -0.110527 3.164887 118 148 61
0.386061 -0.110549 3.165278 81 102 41
0.393484 -0.111678 3.165817 63 82 27
0.332030 -0.116970 3.162985 115 145 49
0.335419 -0.118948 3.165990 117 148 51
0.347631 -0.121935 3.165162 114 148 52
0.357566 -0.121049 3.164665 117 149 55
0.368948 -0.122207 3.162936 116 147 52
0.379040 -0.120574 3.164689 121 152 58
0.385604 -0.120312 3.165464 106 134 53
0.392939 -0.120637 3.166269 66 83 35
0.342343 -0.128211 3.160475 106 142 49
0.348863 -0.129481 3.165046 105 138 43
0.358484 -0.131148 3.164329 110 141 47
0.368712 -0.131809 3.164536 110 140 50
0.377751 -0.131162 3.165127 122 151 62
0.384864 -0.130230 3.165803 100 125 49
0.394136 -0.130554 3.168983 63 78 32
0.360483 -0.137989 3.164913 114 145 48
0.369612 -0.140430 3.164820 96 119 45
0.376598 -0.141182 3.165425 94 115 49
0.385239 -0.140282 3.165505 18 23 11
0.393874 -0.138473 3.164308 1 0 1
0.361099 -0.148286 3.165015 89 118 35
0.369770 -0.148725 3.165279 29 36 16
0.377306 -0.148661 3.165507 21 26 13
0.385431 -0.148686 3.166544 29 39 16
0.393186 -0.147862 3.168794 1 1 2
0.368854 -0.157306 3.167310 102 137 52
0.377771 -0.157444 3.164988 3 3 4
0.330393 -0.064198 3.173271 41 53 28
0.339241 -0.060232 3.175605 79 103 48
0.324662 -0.068279 3.175150 1 3 1
0.347282 -0.074753 3.175672 1 0 2
0.361255 -0.073798 3.173125 1 1 2
0.363475 -0.074811 3.179443 1 2 1
0.350465 -0.082873 3.173563 2 2 2
0.357360 -0.082474 3.174711 17 21 12
0.364937 -0.083010 3.175393 58 72 34
0.375998 -0.083008 3.175719 70 90 33
0.386582 -0.084424 3.174128 91 118 45
0.397910 -0.081029 3.174219 39 48 27
0.349639 -0.091182 3.174193 2 3 2
0.358671 -0.090775 3.174848 74 92 43
0.365773 -0.092243 3.175380 107 138 56
0.376633 -0.090954 3.174644 104 135 54
0.387418 -0.093797 3.174079 75 99 37
0.340598 -0.098125 3.172301 0 0 0
0.349635 -0.098480 3.175227 31 40 15
0.359655 -0.097577 3.175698 104 133 53
0.368195 -0.099374 3.175113 112 145 56
0.376439 -0.102385 3.175170 111 143 56
0.387259 -0.102092 3.174770 91 116 47
0.394877 -0.102167 3.176846 97 129 42
0.403667 -0.103514 3.177954 101 137 42
0.336889 -0.115216 3.173623 109 139 43
0.347685 -0.115051 3.174875 104 136 45
0.358761 -0.113327 3.174340 110 143 51
0.368894 -0.110345 3.175199 110 143 52
0.378430 -0.110293 3.174926 116 148 59
0.386502 -0.110325 3.175108 89 112 47
0.394490 -0.110094 3.175878 41 54 17
0.337454 -0.120126 3.175790 118 148 51
0.348688 -0.120216 3.174459 113 145 51
0.358000 -0.121639 3.174783 118 151 57
0.366710 -0.121581 3.175663 113 145 52
0.379996 -0.120622 3.174585 119 150 56
0.386092 -0.120947 3.175567 110 139 54
0.394108 -0.117811 3.175845 89 112 44
0.349860 -0.129747 3.174347 106 141 45
0.358699 -0.131614 3.174099 113 145 49
0.368600 -0.132023 3.174369 109 139 49
0.378183 -0.130949 3.174776 124 155 61
0.385802 -0.130674 3.175425 114 142 58
0.393803 -0.130563 3.176230 63 78 31
0.359968 -0.139849 3.174861 111 144 46
0.369236 -0.140683 3.174235 96 121 44
0.376655 -0.141445 3.174965 105 130 51
0.385616 -0.140773 3.175352 47 59 25
0.395351 -0.140413 3.176525 10 14 3
0.360613 -0.148747 3.172664 103 137 41
0.369900 -0.149171 3.175011 53 66 27
0.377579 -0.148963 3.175329 52 63 31
0.385888 -0.149479 3.176194 21 27 12
0.394413 -0.152206 3.176389 0 0 1
0.368724 -0.160892 3.175729 105 138 53
0.380353 -0.158275 3.174482 8 10 7
0.382764 -0.157732 3.177744 2 2 2
0.340305 -0.060867 3.182021 68 87 41
0.325262 -0.068142 3.184503 3 4 4
0.347202 -0.074297 3.182391 0 0 2
0.355496 -0.075315 3.184639 0 0 1
0.365384 -0.074769 3.186644 0 0 1
0.350803 -0.082207 3.184238 0 0 2
0.357666 -0.083036 3.184365 9 12 7
0.365618 -0.082026 3.185213 43 53 27
0.374463 -0.084123 3.185075 78 99 39
0.400359 -0.082370 3.184750 48 58 32
0.350796 -0.091769 3.184332 1 1 1
0.359382 -0.090984 3.184529 54 67 32
0.365966 -0.092117 3.185248 96 122 52
0.376923 -0.091805 3.185171 102 133 53
0.385791 -0.092721 3.185386 88 114 48
0.394113 -0.091421 3.184108 103 133 50
0.348963 -0.098868 3.184361 0 1 1
0.358612 -0.097768 3.185200 76 97 37
0.367851 -0.099100 3.185050 111 144 56
0.376618 -0.102164 3.184735 107 140 53
0.387936 -0.102052 3.184632 86 110 44
0.394752 -0.102242 3.185343 81 106 38
0.403385 -0.104923 3.180714 113 148 51
0.336018 -0.115218 3.183943 107 137 41
0.349109 -0.114467 3.184614 105 137 45
0.360225 -0.111750 3.184473 112 144 51
0.368624 -0.111058 3.184523 107 140 47
0.378355 -0.109865 3.184993 111 144 55
0.387078 -0.110780 3.185149 99 124 53
0.394722 -0.110965 3.185844 59 76 31
0.338499 -0.121278 3.184931 121 152 54
0.347970 -0.119543 3.184660 114 146 50
0.357683 -0.121853 3.184655 117 150 58
0.368149 -0.118926 3.184412 114 147 53
0.379851 -0.119880 3.184751 117 149 56
0.386664 -0.121145 3.184998 115 146 57
0.394497 -0.120169 3.185603 54 69 27
0.350341 -0.128374 3.183500 112 147 50
0.357414 -0.130406 3.185491 110 144 50
0.368448 -0.131793 3.183661 114 145 53
0.378520 -0.131056 3.184696 116 147 54
0.386424 -0.130164 3.185115 118 148 59
0.394721 -0.132525 3.184838 72 91 33
0.352446 -0.138827 3.183203 132 166 67
0.360181 -0.140859 3.185976 116 149 50
0.369258 -0.140738 3.184538 103 129 47
0.377858 -0.141508 3.184842 104 130 50
0.386478 -0.140925 3.185037 78 97 40
0.395376 -0.140444 3.186111 52 68 19
0.362310 -0.155535 3.180082 1 0 6
0.369742 -0.149501 3.184345 82 104 38
0.378324 -0.149221 3.185192 80 97 44
0.386009 -0.149839 3.185644 39 48 22
0.395513 -0.148170 3.184665 26 34 13
0.368110 -0.159108 3.185567 25 34 14
0.379110 -0.158253 3.185361 25 34 14
0.384145 -0.157964 3.185725 1 1 2
0.395832 -0.156590 3.185560 0 0 1
0.367242 -0.168236 3.187460 99 133 55
0.382371 -0.167146 3.185127 1 0 3
0.367309 -0.075260 3.197939 1 1 1
0.372998 -0.071267 3.196512 0 0 1
0.357812 -0.083303 3.194538 4 5 3
0.367455 -0.082469 3.194802 37 46 24
0.373501 -0.083749 3.194368 76 94 39
