ply
format ascii 1.0
element vertex 1307
property float x
property float y
property float z
property uchar red
property uchar green
property uchar blue
end_header
0.000442 0.040511 3.887785 1 0 1
0.009591 0.038555 3.886712 83 116 42
0.018985 0.039043 3.885492 90 125 46
0.027082 0.039379 3.884738 95 130 48
0.035185 0.038639 3.883886 76 103 40
0.046687 0.039984 3.885235 22 29 14
0.053136 0.041635 3.883102 0 0 4
0.067780 0.040659 3.882954 1 1 1
-0.000209 0.029775 3.887330 44 63 24
0.008858 0.027776 3.886064 78 108 44
0.018114 0.028925 3.885349 89 124 48
0.026232 0.030035 3.884588 90 125 48
0.036485 0.030644 3.884183 60 81 35
0.044225 0.032467 3.882034 37 48 18
-0.001431 0.019557 3.885675 23 31 16
0.009816 0.019242 3.886179 60 80 38
0.016867 0.018758 3.884852 75 102 47
0.025289 0.019228 3.883931 77 107 40
0.034779 0.019621 3.883509 27 37 12
0.002087 0.008298 3.888864 78 106 52
0.008745 0.009953 3.885762 44 60 28
0.017716 0.010704 3.884483 44 58 30
0.025407 0.010544 3.882975 80 109 47
0.035809 0.009639 3.885565 17 24 9
0.001136 -0.000076 3.887986 18 23 15
0.008326 0.000546 3.885395 57 73 41
0.016800 0.000448 3.884256 41 54 29
0.027352 0.003332 3.881699 59 81 33
0.033050 0.003330 3.882370 87 122 43
0.009150 -0.010335 3.885182 4 5 4
0.012874 -0.006624 3.880654 25 30 18
0.027075 0.075132 3.896190 15 20 8
0.037039 0.075836 3.895803 2 2 3
0.044802 0.077148 3.894347 1 0 1
0.020344 0.067304 3.896354 74 101 37
0.028693 0.068590 3.895842 65 86 38
0.036319 0.068291 3.894575 47 60 31
0.044451 0.069292 3.893536 17 22 13
0.010471 0.057162 3.897145 101 137 51
0.018521 0.059360 3.895675 91 123 45
0.028044 0.059484 3.894890 88 119 45
0.036738 0.060901 3.894281 79 105 44
0.045264 0.058951 3.894347 42 55 25
0.053982 0.057667 3.894793 2 4 4
0.010252 0.047916 3.896906 98 133 50
0.018893 0.048369 3.895626 94 130 48
0.026816 0.049470 3.894121 90 123 46
0.036560 0.049933 3.894656 61 80 37
0.046363 0.051664 3.894353 23 31 13
0.054747 0.049544 3.894443 1 1 2
-0.000753 0.036608 3.897398 76 106 44
0.009392 0.039335 3.896304 87 123 45
0.017832 0.039678 3.895034 90 126 46
0.026556 0.039813 3.894402 88 121 46
0.035874 0.037604 3.893957 38 52 22
0.047180 0.042533 3.892403 5 7 5
-0.013355 0.025068 3.898263 2 3 2
-0.000005 0.027377 3.896473 61 85 36
0.008442 0.028159 3.895669 84 117 47
0.016807 0.029531 3.894577 89 124 48
0.025913 0.030416 3.893910 72 97 41
0.036150 0.030429 3.893578 56 76 27
-0.010310 0.020962 3.894720 1 1 2
-0.000193 0.019253 3.896467 45 61 29
0.008139 0.019409 3.895113 55 73 37
0.016255 0.018715 3.894215 77 105 44
0.026090 0.018647 3.894050 38 53 22
0.033802 0.022823 3.893254 100 136 40
-0.012560 0.005687 3.897460 13 15 12
-0.000388 0.008950 3.896035 53 72 34
0.008262 0.010140 3.895024 48 64 32
0.016054 0.010325 3.894265 60 80 39
0.027665 0.007620 3.895059 68 95 36
0.036948 0.010925 3.894091 2 2 2
-0.001824 0.000536 3.895792 21 27 17
0.008299 0.001114 3.894928 49 65 35
0.014519 0.001581 3.892815 33 42 24
0.002376 -0.008484 3.897754 3 3 4
0.003588 -0.010213 3.894926 2 2 1
0.020271 0.075558 3.907073 15 20 8
0.027093 0.076091 3.905564 15 19 10
0.036152 0.076775 3.903091 1 1 2
0.044299 0.076178 3.903760 0 1 1
0.010381 0.067082 3.907597 103 138 54
0.019514 0.068583 3.905891 75 100 41
0.027603 0.069070 3.905021 69 89 42
0.035504 0.068254 3.903810 38 49 24
0.043119 0.072244 3.901856 0 0 1
0.009500 0.057716 3.906481 97 133 49
0.018775 0.059380 3.905881 86 116 44
0.026831 0.060365 3.904266 89 121 46
0.036838 0.060587 3.904360 49 65 28
0.046148 0.059307 3.903361 13 17 9
0.054000 0.059113 3.900027 1 0 3
-0.007702 0.044523 3.909985 86 123 41
-0.000154 0.046418 3.907717 93 130 47
0.008603 0.048385 3.905886 97 133 49
0.017095 0.049228 3.904902 93 128 47
0.025896 0.050060 3.904203 87 117 48
0.036010 0.050208 3.904305 25 32 17
0.047529 0.052197 3.904165 3 3 3
-0.011058 0.037609 3.905653 85 124 49
-0.000771 0.039022 3.905623 79 110 43
0.008638 0.039419 3.905757 87 123 45
0.016722 0.039979 3.904454 92 127 48
0.025506 0.040015 3.903807 73 101 39
0.035165 0.038853 3.903754 61 78 32
-0.010514 0.027893 3.906558 39 54 25
-0.000392 0.027865 3.906215 75 103 44
0.007236 0.028997 3.904835 86 119 49
0.015938 0.030027 3.903936 82 111 47
0.027178 0.030637 3.905174 55 75 31
0.034115 0.032033 3.901209 1 0 3
-0.011118 0.020444 3.905177 32 45 19
-0.000414 0.019832 3.905955 37 49 26
0.007140 0.019392 3.904616 59 78 38
0.015500 0.019576 3.903837 77 106 41
0.024490 0.018304 3.904145 4 5 4
-0.009596 0.008924 3.906267 59 81 41
-0.001696 0.010010 3.905153 51 68 34
0.007720 0.010029 3.904458 53 70 36
0.015898 0.010907 3.903980 67 90 41
0.023656 0.007731 3.904323 86 121 44
0.032954 0.013027 3.904183 0 0 1
-0.008526 0.002261 3.906600 8 11 7
-0.001845 0.001692 3.904690 35 46 26
0.006052 0.002001 3.903788 29 38 20
0.001808 -0.006355 3.900097 3 6 3
0.019127 0.085532 3.916003 1 1 2
0.010972 0.076072 3.918182 46 62 23
0.018452 0.076106 3.915757 31 41 18
0.025969 0.076525 3.914869 15 19 11
0.035954 0.076888 3.912829 2 2 2
0.001945 0.066262 3.918494 99 137 52
0.010278 0.068546 3.917027 82 110 42
0.018120 0.069043 3.915248 85 113 46
0.026363 0.069134 3.914376 61 80 37
0.034870 0.067832 3.913140 38 50 23
0.000857 0.055868 3.916983 92 126 48
0.009053 0.057537 3.916252 90 124 44
0.016915 0.059159 3.914680 86 118 44
0.026501 0.060505 3.914019 71 97 37
0.035789 0.059622 3.913890 32 42 18
0.045499 0.061610 3.914703 0 0 0
-0.009787 0.047450 3.915790 71 103 31
-0.000442 0.048139 3.916384 93 130 47
0.007895 0.048839 3.915251 95 131 48
0.016389 0.049091 3.914029 93 127 49
0.027228 0.050896 3.914261 52 68 30
0.036261 0.050588 3.914035 2 4 3
0.046992 0.050357 3.916316 1 1 1
-0.011288 0.039508 3.915977 83 117 46
-0.000798 0.038739 3.916347 86 120 46
0.007356 0.039342 3.914860 90 125 47
0.016760 0.040489 3.914472 83 115 43
0.026256 0.038221 3.913548 58 77 29
-0.018769 0.025064 3.915139 43 57 26
-0.009542 0.029347 3.916376 61 83 37
-0.002049 0.028502 3.915221 78 107 47
0.006915 0.029491 3.914719 85 118 48
0.015434 0.029213 3.913957 70 97 41
0.024381 0.031277 3.913200 79 110 43
-0.010336 0.019591 3.916267 47 65 30
-0.001765 0.020217 3.914952 37 48 26
0.006157 0.019873 3.914317 71 95 42
0.015588 0.020362 3.914578 38 53 24
0.025402 0.018620 3.914716 32 44 19
-0.019097 0.010773 3.916626 40 51 31
-0.011126 0.009134 3.915277 47 62 33
-0.002014 0.009297 3.914987 68 91 45
0.005813 0.010554 3.913364 50 65 34
0.015700 0.011529 3.914186 64 91 36
-0.010646 0.002039 3.915736 8 10 7
-0.002039 0.002677 3.913396 18 23 13
0.004352 0.002637 3.910822 4 3 2
0.018432 0.085930 3.927100 1 2 1
0.023408 0.085599 3.925014 1 0 0
0.001428 0.076036 3.927762 95 130 44
0.009563 0.077226 3.925995 51 68 28
0.017040 0.077025 3.925147 29 38 20
0.025847 0.077687 3.923826 6 8 4
0.034866 0.080536 3.925515 1 1 1
0.000559 0.069346 3.926478 85 117 42
0.009197 0.069271 3.925645 87 117 45
0.017471 0.069552 3.924689 85 112 48
0.025208 0.068969 3.923571 50 66 30
0.035980 0.065304 3.925437 1 1 2
-0.000559 0.057091 3.926422 93 127 47
0.007968 0.058523 3.925153 85 117 43
0.016572 0.059422 3.924094 82 111 43
0.026717 0.059731 3.923903 39 53 22
0.037350 0.059799 3.922746 3 5 3
-0.018668 0.049883 3.928143 57 83 26
-0.010431 0.048665 3.926538 84 117 42
-0.001163 0.048961 3.925421 94 131 47
0.006904 0.049107 3.924398 95 131 48
0.015604 0.049992 3.923641 80 107 44
0.025003 0.050591 3.925521 4 6 4
0.038510 0.053445 3.926957 2 2 2
0.045052 0.050088 3.924851 1 0 0
-0.019066 0.039424 3.925851 70 99 37
-0.010312 0.038270 3.926643 81 113 44
-0.002038 0.039210 3.925063 84 118 45
0.006254 0.040067 3.924242 91 125 49
0.016376 0.040455 3.924063 74 103 37
0.025870 0.041883 3.926380 50 63 27
-0.020249 0.027849 3.926143 33 46 20
-0.010558 0.029159 3.926063 63 86 40
-0.003182 0.028748 3.924759 79 108 48
0.005600 0.029530 3.923921 72 100 39
0.017229 0.031097 3.923995 80 112 49
-0.020356 0.017850 3.927529 66 94 38
-0.011166 0.020707 3.925190 29 40 20
-0.002468 0.020822 3.924486 52 69 34
0.005654 0.020488 3.923691 68 94 37
0.015392 0.020044 3.924865 1 2 3
0.026269 0.016236 3.921351 2 1 1
-0.029424 0.011289 3.925417 5 6 4
-0.020579 0.010964 3.926234 49 64 35
-0.011091 0.009390 3.925207 56 73 37
-0.003247 0.010028 3.924241 55 72 37
0.007929 0.013338 3.924347 82 114 48
0.013188 0.012910 3.921569 88 122 45
-0.011831 0.001881 3.923790 5 6 4
-0.000594 0.002874 3.922794 1 0 2
-0.009863 0.084822 3.939717 1 0 0
0.008292 0.085701 3.936836 2 3 2
0.016354 0.087328 3.933746 2 3 2
0.023978 0.086313 3.936234 1 1 2
0.033533 0.084188 3.934801 1 1 4
-0.008412 0.076478 3.938685 0 1 2
-0.000140 0.077815 3.936933 61 83 31
0.007920 0.078182 3.935440 48 63 29
0.015726 0.077575 3.934163 30 38 21
0.026308 0.080160 3.934104 6 7 4
-0.013137 0.066615 3.939627 0 0 1
-0.000253 0.069994 3.936674 88 120 44
0.007818 0.070003 3.934967 92 124 48
0.016145 0.070168 3.934323 72 95 41
0.025423 0.068219 3.933303 25 33 16
0.035745 0.065387 3.933467 0 0 1
-0.020020 0.055102 3.938528 89 127 40
-0.010419 0.056848 3.936611 95 130 48
-0.002130 0.058275 3.935659 92 126 45
0.006175 0.059426 3.933788 87 119 45
0.016673 0.060034 3.934732 49 65 29
0.025105 0.060098 3.934303 25 35 14
0.034284 0.054334 3.935512 2 3 4
-0.020211 0.049036 3.936350 83 113 45
-0.010711 0.049026 3.936264 88 124 44
-0.002688 0.048974 3.934810 92 129 46
0.006233 0.049447 3.934229 91 125 48
0.017281 0.048907 3.935289 57 76 26
0.024527 0.048225 3.933994 4 6 3
0.042335 0.050546 3.930700 3 1 4
-0.028740 0.042722 3.939741 0 0 2
-0.020215 0.038059 3.936343 72 100 40
-0.011611 0.038296 3.935682 80 112 44
-0.003239 0.039514 3.934616 90 125 47
0.007246 0.040148 3.934672 68 94 38
0.015439 0.040129 3.933506 79 112 42
-0.029327 0.027168 3.937983 0 0 0
-0.019633 0.029488 3.936533 48 65 30
-0.011982 0.029090 3.935202 61 82 40
-0.003689 0.028641 3.934355 76 104 43
0.004961 0.029032 3.933535 59 82 34
0.013924 0.032936 3.933767 79 110 51
-0.029736 0.017884 3.938369 41 55 29
-0.021063 0.019301 3.936039 48 66 31
-0.011861 0.020396 3.934927 42 56 28
-0.003966 0.020572 3.934103 57 76 36
0.004568 0.017403 3.933100 85 121 46
0.017750 0.019349 3.933513 0 1 2
-0.031824 0.013745 3.934151 9 10 9
-0.021293 0.010904 3.935274 36 45 24
-0.012189 0.010299 3.934746 57 74 39
-0.005305 0.011137 3.932352 33 41 26
-0.019226 0.003789 3.937645 1 1 1
-0.014070 0.002836 3.933475 1 2 2
0.010315 0.095507 3.943609 1 1 1
-0.018066 0.089778 3.947736 1 0 0
-0.013519 0.085862 3.947170 28 38 13
-0.001810 0.085706 3.947477 26 35 13
0.007260 0.086910 3.945689 4 5 4
0.015285 0.086127 3.943048 1 2 2
-0.009622 0.077978 3.947149 60 81 31
-0.001225 0.078933 3.945860 67 89 37
0.006804 0.078624 3.944639 51 66 32
0.015441 0.079712 3.943718 18 23 14
0.024005 0.082462 3.941507 1 1 2
-0.018573 0.067360 3.948189 69 93 35
-0.010494 0.067832 3.946950 95 130 45
-0.001773 0.069560 3.945496 90 122 44
0.007136 0.070800 3.944479 82 109 44
0.015580 0.070135 3.944282 44 57 25
0.026367 0.068211 3.945091 1 1 1
-0.044462 0.056411 3.946674 87 124 42
-0.028525 0.055346 3.947855 84 122 37
-0.020106 0.056815 3.946622 91 128 44
-0.011218 0.058666 3.945583 96 131 47
-0.003800 0.059214 3.944781 91 124 45
0.007155 0.059489 3.944727 66 87 36
0.016656 0.059470 3.944137 25 34 15
0.028703 0.055456 3.946974 4 4 5
-0.040447 0.052438 3.946087 91 124 47
-0.031004 0.047900 3.944963 79 110 42
-0.020852 0.048819 3.946131 82 114 42
-0.011883 0.049158 3.945073 88 124 43
-0.003522 0.049788 3.944288 91 126 46
0.005592 0.050095 3.943827 81 113 43
0.016023 0.049393 3.942010 61 84 31
0.036663 0.051787 3.942034 1 1 2
-0.029240 0.038837 3.946827 57 78 32
-0.021036 0.038105 3.945663 73 101 41
-0.012652 0.039258 3.944798 84 118 45
-0.003842 0.039942 3.943877 83 113 44
0.007261 0.039726 3.944787 66 96 37
-0.029549 0.029081 3.946746 37 52 21
-0.020662 0.029816 3.945707 39 52 27
-0.013074 0.029240 3.944530 65 87 41
-0.004035 0.029725 3.943868 65 91 33
0.007224 0.031776 3.943914 87 122 50
-0.039343 0.016207 3.945668 2 3 3
-0.030490 0.020235 3.946936 52 70 33
-0.021306 0.019472 3.945451 61 83 40
-0.012289 0.020280 3.944382 55 73 36
-0.004340 0.020075 3.944546 66 91 38
0.003768 0.017046 3.941813 85 123 44
-0.029846 0.009259 3.945318 21 27 15
-0.021835 0.010674 3.945311 54 71 38
-0.013766 0.011251 3.942744 29 37 21
-0.020110 0.003145 3.943332 1 1 1
-0.002194 0.094949 3.957397 6 8 4
-0.020618 0.088185 3.956504 28 37 19
-0.010375 0.086238 3.956796 37 50 18
-0.003034 0.086218 3.955464 23 30 14
0.006189 0.086421 3.954140 5 7 5
0.015024 0.085231 3.953549 3 3 2
-0.018378 0.078024 3.957835 69 94 32
-0.010862 0.078556 3.956080 80 107 41
-0.002320 0.078945 3.955167 71 93 41
0.005362 0.078337 3.953774 51 68 32
-0.019359 0.068602 3.957718 96 129 48
-0.011528 0.068112 3.955735 90 124 42
-0.002962 0.070416 3.954418 88 120 44
0.006413 0.070930 3.953918 58 78 32
0.016155 0.069790 3.954117 25 34 14
0.024199 0.069751 3.953404 0 0 0
-0.031476 0.057747 3.956548 87 122 43
-0.021290 0.058500 3.955961 93 129 45
-0.012453 0.059409 3.954914 93 128 45
-0.003848 0.059333 3.953749 88 120 44
0.006909 0.059875 3.954158 28 37 16
0.016146 0.060243 3.953300 27 37 15
0.026195 0.057131 3.951906 2 1 3
-0.039978 0.048903 3.957030 67 94 32
-0.030885 0.048318 3.956377 72 98 37
-0.021043 0.049300 3.955771 82 115 41
-0.013340 0.049590 3.954349 90 125 45
-0.004876 0.049858 3.953277 72 101 38
0.007096 0.048929 3.955363 44 63 25
-0.040136 0.037478 3.956684 14 18 9
-0.030286 0.038419 3.956438 56 76 33
-0.022386 0.038677 3.955312 79 107 47
-0.013971 0.039716 3.953856 88 122 45
-0.003145 0.039011 3.954803 58 80 33
0.004319 0.040750 3.953419 82 120 43
-0.030207 0.030348 3.956258 26 34 17
-0.021846 0.030386 3.954971 44 58 30
-0.014304 0.029985 3.954096 66 89 38
-0.003727 0.031431 3.953764 53 74 33
0.003722 0.032410 3.950696 87 125 47
-0.040020 0.018912 3.954140 29 37 25
-0.031125 0.019332 3.955600 57 76 38
-0.022216 0.019948 3.954688 63 84 40
-0.014027 0.021143 3.953618 42 56 29
-0.005009 0.021010 3.953268 75 106 37
-0.037981 0.010618 3.957446 8 9 6
-0.031200 0.010756 3.954991 39 52 29
-0.022915 0.011072 3.953762 47 62 33
-0.015910 0.012249 3.953473 1 1 1
-0.031522 0.095700 3.966897 13 16 10
-0.009337 0.099097 3.967979 9 12 7
-0.004472 0.096272 3.961169 11 14 8
-0.028799 0.092054 3.966141 33 41 23
-0.020424 0.087243 3.966887 60 81 30
-0.011937 0.087236 3.965534 35 46 22
-0.003931 0.086943 3.964252 20 25 14
0.006977 0.087825 3.964314 4 5 3
0.017937 0.091077 3.961304 0 1 1
-0.028914 0.075915 3.967868 95 131 44
-0.020577 0.078904 3.966609 84 113 40
-0.011940 0.079234 3.965190 87 116 46
-0.003563 0.078987 3.964221 65 86 38
0.005126 0.077104 3.963092 29 38 16
-0.039496 0.065242 3.967143 93 129 41
-0.029588 0.067557 3.967091 99 134 48
-0.021269 0.068639 3.966062 95 131 45
-0.013485 0.069193 3.964258 89 122 42
-0.003119 0.070007 3.964115 62 83 34
0.005966 0.070323 3.963092 48 66 25
0.016697 0.071992 3.963343 0 0 1
-0.040267 0.060308 3.964890 85 120 40
-0.030269 0.059510 3.966360 91 127 44
-0.022032 0.059090 3.965219 91 126 44
-0.013930 0.059397 3.963973 95 130 46
-0.002840 0.060490 3.963933 55 74 28
0.005166 0.060894 3.962284 17 21 9
0.017663 0.059884 3.964554 3 3 2
-0.040767 0.049261 3.965448 81 113 42
-0.031415 0.047667 3.966270 73 102 39
-0.022589 0.048956 3.965164 90 125 45
-0.013967 0.049491 3.963640 74 102 40
-0.002926 0.046127 3.965314 50 71 28
0.004121 0.048766 3.966059 85 121 47
-0.048006 0.038137 3.967941 0 1 0
-0.040345 0.038891 3.967158 35 48 21
-0.031365 0.039106 3.965625 62 84 39
-0.023415 0.038973 3.964546 85 116 48
-0.014061 0.039897 3.963325 74 100 41
-0.003460 0.039613 3.964147 67 92 38
-0.050213 0.029867 3.966117 1 1 5
-0.041121 0.029409 3.966380 22 29 16
-0.031282 0.031192 3.965413 27 36 18
-0.022700 0.030757 3.964153 54 72 35
-0.015095 0.030030 3.963344 43 59 24
-0.004716 0.030370 3.962777 16 21 13
-0.040362 0.019942 3.965753 27 34 21
-0.031939 0.019626 3.965315 62 81 40
-0.023001 0.020898 3.963725 37 48 25
-0.012846 0.022223 3.963300 59 84 31
-0.006978 0.022947 3.960100 86 122 42
-0.040285 0.009713 3.965317 18 24 14
-0.033067 0.011591 3.964580 53 71 37
-0.025183 0.012537 3.961744 70 91 47
-0.032016 0.095339 3.974499 78 101 43
-0.020522 0.095427 3.978451 11 14 8
-0.013946 0.096378 3.976294 8 10 6
-0.000885 0.094943 3.973856 0 0 0
-0.029615 0.087477 3.977414 63 84 32
-0.021297 0.088363 3.976167 53 70 30
-0.013079 0.087922 3.974619 36 46 24
-0.004512 0.087731 3.973907 28 36 17
0.003624 0.089989 3.974943 1 0 1
-0.037927 0.075479 3.979512 106 141 50
-0.030229 0.077723 3.976632 95 129 43
-0.022248 0.079098 3.975460 92 125 44
-0.012932 0.079640 3.974477 77 103 42
-0.004268 0.079145 3.973197 47 62 27
0.007464 0.074872 3.974564 2 3 2
-0.048565 0.066062 3.978770 90 126 38
-0.040543 0.067541 3.976429 92 128 43
-0.031276 0.068438 3.976093 99 133 49
-0.023224 0.069367 3.974551 95 129 45
-0.013515 0.069691 3.974053 87 118 45
-0.003651 0.070488 3.974442 33 45 18
0.006556 0.071376 3.973046 3 6 4
0.013135 0.072529 3.974309 0 0 1
-0.049834 0.057857 3.977828 87 124 43
-0.039526 0.059262 3.976941 81 114 39
-0.031792 0.059639 3.975264 90 125 43
-0.023397 0.059357 3.974389 92 127 45
-0.014408 0.060125 3.974474 80 108 41
-0.003112 0.060953 3.973358 31 41 15
0.016328 0.059993 3.971150 2 1 4
-0.059255 0.044806 3.975626 0 0 1
-0.049519 0.047764 3.977323 45 63 25
-0.040495 0.048419 3.976222 70 99 38
-0.032031 0.048609 3.975441 83 117 44
-0.023672 0.049752 3.974034 86 119 45
-0.015532 0.049469 3.972760 45 61 25
-0.002138 0.050070 3.974947 74 106 40
0.003161 0.051825 3.970309 80 119 40
-0.057986 0.044023 3.971564 0 0 1
-0.050651 0.040836 3.974490 1 2 2
-0.040523 0.039585 3.976237 43 57 29
-0.032405 0.039159 3.974813 70 94 44
-0.024132 0.038567 3.973816 74 103 39
-0.015149 0.041506 3.973804 60 84 34
-0.050808 0.032928 3.974987 1 1 1
-0.040537 0.029983 3.975165 53 70 34
-0.032086 0.031080 3.974425 43 57 28
-0.024495 0.030182 3.973490 51 69 33
-0.014322 0.027356 3.973222 72 104 34
-0.049110 0.021524 3.977563 11 17 11
-0.042386 0.019812 3.975259 42 55 30
-0.033105 0.020040 3.974352 48 63 34
-0.024002 0.022610 3.973130 1 2 2
-0.049187 0.010756 3.976018 3 5 3
-0.042725 0.011160 3.974631 62 82 43
-0.033921 0.013570 3.971510 20 27 16
-0.022339 0.108113 3.987556 2 2 3
-0.050795 0.098986 3.988727 12 15 8
-0.041505 0.096072 3.985493 35 45 18
-0.029379 0.095917 3.987163 22 31 13
-0.022989 0.096417 3.985253 16 22 12
-0.013651 0.096254 3.983525 2 2 2
-0.005484 0.096101 3.987159 1 1 1
-0.038905 0.088654 3.988228 63 84 29
-0.031183 0.088739 3.986098 73 97 38
-0.022568 0.088609 3.985054 55 72 33
-0.014619 0.088436 3.983884 42 54 26
-0.006838 0.091860 3.981866 4 5 4
-0.039818 0.078478 3.986835 103 137 50
-0.032009 0.078826 3.985346 94 127 43
-0.022979 0.080123 3.984300 89 119 45
-0.013785 0.080638 3.983696 52 70 31
-0.002344 0.079218 3.983763 3 4 3
0.006744 0.075581 3.982106 0 0 1
-0.058523 0.068904 3.989057 86 124 35
-0.051116 0.067697 3.987163 79 111 34
-0.041202 0.068332 3.985944 95 129 47
-0.032592 0.069279 3.984823 98 132 48
-0.023322 0.068430 3.984203 87 118 43
-0.013384 0.068662 3.983971 41 56 23
-0.005013 0.070714 3.983765 5 7 4
-0.060457 0.056688 3.987288 71 98 36
-0.051551 0.057834 3.986872 78 108 40
-0.041342 0.059467 3.985625 83 117 40
-0.032553 0.059480 3.984662 90 126 44
-0.024239 0.059898 3.983227 84 115 42
-0.012782 0.061601 3.984359 44 61 22
-0.003884 0.057382 3.983587 70 100 37
-0.059621 0.047209 3.985891 3 4 3
-0.050337 0.048617 3.986035 58 80 33
-0.041849 0.048993 3.985246 78 108 44
-0.033470 0.049344 3.984390 87 122 45
-0.024395 0.049638 3.983707 77 107 40
-0.013301 0.048805 3.983991 81 116 47
-0.059020 0.036306 3.987000 2 0 3
-0.050377 0.040124 3.986144 29 40 19
-0.041695 0.039951 3.985238 45 59 31
-0.033592 0.039552 3.984130 71 95 41
-0.025172 0.039418 3.982715 63 88 31
-0.017229 0.039322 3.982191 45 61 31
-0.051072 0.028592 3.985649 59 78 40
-0.041449 0.030508 3.985098 52 67 34
-0.033295 0.031014 3.983723 44 58 30
-0.024966 0.030144 3.983001 60 83 32
-0.058837 0.018196 3.988714 1 1 1
-0.051588 0.019649 3.985008 11 14 8
-0.041415 0.019965 3.984625 43 56 32
-0.035377 0.019948 3.982204 53 71 37
-0.057953 0.009803 3.988287 3 3 2
-0.051525 0.010928 3.983451 30 37 21
-0.044724 0.011976 3.981593 67 86 47
-0.057530 0.108314 3.997856 55 67 30
-0.055109 0.105690 3.995146 43 51 23
-0.029214 0.108062 3.996245 5 6 3
-0.026611 0.107100 3.993837 0 0 2
-0.051611 0.098615 3.994901 69 87 35
-0.040271 0.096488 3.997416 55 73 28
-0.032152 0.096913 3.995453 24 31 15
-0.023889 0.096713 3.994367 11 14 8
-0.014813 0.095991 3.994187 3 4 3
-0.007058 0.099693 3.995013 1 1 5
-0.050407 0.085465 3.999246 66 90 30
-0.040714 0.088543 3.996200 84 112 41
-0.032016 0.088911 3.995236 79 104 44
-0.023833 0.089063 3.994122 51 66 31
-0.015485 0.088633 3.992363 46 61 27
-0.062039 0.074329 3.999595 90 129 40
-0.049780 0.078367 3.997287 107 138 56
-0.041639 0.078877 3.995610 104 135 52
-0.033070 0.079674 3.994393 94 127 45
-0.023499 0.081235 3.993557 67 90 36
-0.014082 0.080833 3.994212 18 24 11
-0.004451 0.079163 3.993738 1 2 1
-0.061303 0.070432 3.995718 66 96 28
-0.050249 0.068464 3.996370 90 123 43
-0.042234 0.069155 3.995102 100 133 50
-0.033528 0.069277 3.994301 97 130 48
-0.024209 0.068644 3.993470 58 78 29
-0.014634 0.068461 3.993441 18 24 11
-0.068522 0.058500 3.997349 0 1 1
-0.060441 0.058238 3.997237 71 100 35
-0.050756 0.058173 3.996112 77 109 39
-0.042634 0.058983 3.995006 88 124 43
-0.033717 0.059761 3.993982 89 122 43
-0.024642 0.061317 3.993255 70 96 39
-0.013677 0.059241 3.992836 53 76 26
-0.072871 0.049778 3.996392 1 0 1
-0.059791 0.049153 3.996411 44 61 25
-0.051337 0.048956 3.995682 64 86 39
-0.042860 0.049044 3.994621 85 117 48
-0.034150 0.049097 3.993698 66 93 34
-0.024422 0.049959 3.995255 84 117 44
-0.013043 0.053710 3.990349 83 117 44
-0.069930 0.039207 3.995772 2 2 2
-0.060451 0.040538 3.995389 16 21 12
-0.050719 0.040580 3.995765 23 30 16
-0.042899 0.040294 3.994244 53 69 34
-0.033999 0.040449 3.992894 58 80 33
-0.024664 0.039627 3.993787 37 54 19
-0.061422 0.027882 3.995066 29 39 21
-0.051761 0.030263 3.995369 76 101 50
-0.042185 0.031142 3.994127 40 51 29
-0.033810 0.032588 3.993993 46 63 23
-0.059882 0.018184 3.995825 35 46 23
-0.052449 0.019480 3.993785 61 79 41
-0.044768 0.019998 3.993265 47 61 34
-0.058980 0.007201 3.996256 47 62 35
-0.055901 0.007876 3.993672 64 84 48
-0.054435 0.105072 4.005630 98 130 41
-0.039277 0.107256 4.007796 11 14 9
-0.033712 0.106005 4.005299 5 7 4
-0.024464 0.105392 4.004345 2 2 3
-0.050281 0.097272 4.007048 67 89 35
-0.041700 0.098060 4.005888 42 55 26
-0.033653 0.097456 4.004527 24 31 17
-0.024664 0.097538 4.004170 43 56 26
-0.058633 0.086524 4.007795 90 125 42
-0.050270 0.087985 4.006735 89 121 41
-0.042069 0.088948 4.005165 91 121 45
-0.033439 0.088992 4.004169 71 93 41
-0.024256 0.087982 4.003429 33 44 21
-0.069562 0.075522 4.008466 86 125 36
-0.059614 0.077230 4.007566 96 131 47
-0.050965 0.078677 4.005807 107 139 55
-0.042858 0.079035 4.004631 100 132 49
-0.034303 0.079389 4.003416 85 113 42
-0.023172 0.079963 4.003776 21 28 12
-0.013439 0.081576 4.005645 1 2 1
-0.006186 0.080128 4.002137 0 0 1
-0.070173 0.069332 4.006954 65 92 29
-0.060492 0.069426 4.007003 78 110 36
-0.051703 0.069344 4.005263 93 128 44
-0.043077 0.069447 4.004586 99 132 49
-0.033924 0.069789 4.003596 81 108 40
-0.023317 0.068377 4.003187 29 37 14
-0.016235 0.068181 4.000276 1 1 0
-0.078445 0.063866 4.008317 1 0 1
-0.070882 0.059211 4.007457 34 46 18
-0.061039 0.058579 4.006496 70 98 37
-0.052045 0.058939 4.005075 85 119 43
-0.043670 0.060064 4.003478 90 124 44
-0.034183 0.059577 4.003841 80 110 41
-0.024106 0.058875 4.002050 55 79 27
-0.077460 0.050686 4.005256 1 0 1
-0.070554 0.048883 4.006916 17 23 10
-0.060701 0.049859 4.006039 47 62 30
-0.052333 0.049129 4.005105 72 96 44
-0.044198 0.049501 4.003731 72 98 39
-0.034787 0.050867 4.003568 62 87 35
-0.079634 0.042246 4.005625 1 1 1
-0.072419 0.042657 4.003549 5 5 4
-0.060246 0.039944 4.006548 42 56 29
-0.052032 0.040436 4.004715 34 45 23
-0.044105 0.040027 4.003788 56 74 36
-0.033428 0.037882 4.003624 32 43 17
-0.021909 0.037754 4.003326 0 1 0
-0.071344 0.028169 4.005073 12 17 9
-0.061234 0.030994 4.005069 74 98 49
-0.052178 0.030403 4.004013 48 63 34
-0.045354 0.032551 4.002185 18 24 14
-0.063237 0.020038 4.003385 54 71 34
-0.052121 0.020311 4.002479 31 41 25
-0.062292 0.007041 4.005070 90 116 63
-0.068284 -0.000552 4.006855 9 12 8
-0.064784 0.001777 4.002843 22 30 19
-0.041205 0.115617 4.013449 0 1 3
-0.061600 0.104510 4.016914 93 129 38
-0.050807 0.105603 4.017697 38 51 22
-0.044046 0.106965 4.014944 9 11 7
-0.034220 0.106800 4.014588 3 4 3
-0.027063 0.104428 4.016933 0 1 2
-0.059441 0.098392 4.017242 62 83 30
-0.051512 0.098778 4.015735 67 87 37
-0.043239 0.098462 4.014701 43 54 27
-0.034229 0.098584 4.013206 47 60 31
-0.023824 0.102768 4.012605 1 1 1
-0.070444 0.092018 4.018947 102 136 49
-0.060181 0.088156 4.016358 94 129 44
-0.052307 0.088733 4.015229 93 125 44
-0.042959 0.089752 4.014385 85 112 44
-0.034251 0.089448 4.013555 38 50 23
-0.023756 0.086744 4.013546 2 3 3
-0.014574 0.084387 4.012825 0 1 1
-0.079347 0.079111 4.018981 43 62 19
-0.072106 0.076742 4.016227 85 120 37
-0.060828 0.078324 4.016321 99 134 48
-0.052720 0.079191 4.014844 101 134 49
-0.044070 0.078893 4.013751 92 123 46
-0.032388 0.080546 4.014923 29 39 15
-0.025626 0.081450 4.013422 5 7 4
-0.014699 0.083370 4.012938 1 1 1
-0.081736 0.069787 4.016119 62 85 29
-0.070793 0.068340 4.016687 68 95 32
-0.061713 0.069641 4.015264 87 121 41
-0.052801 0.069322 4.014658 92 128 43
-0.043705 0.070060 4.013988 85 116 40
-0.033288 0.070094 4.013722 41 54 20
-0.026159 0.070427 4.014633 0 0 1
-0.078742 0.059762 4.017355 64 87 33
-0.070310 0.058999 4.016357 68 94 36
-0.062088 0.058951 4.015228 82 113 44
-0.053578 0.058983 4.014207 86 121 42
-0.042583 0.058627 4.013982 79 109 43
-0.033058 0.062644 4.016013 82 119 41
-0.089816 0.044316 4.013075 0 0 3
-0.081026 0.049064 4.015374 28 38 15
-0.070481 0.050546 4.015853 31 41 21
-0.062034 0.050219 4.015133 51 66 34
-0.053456 0.050189 4.014062 74 99 43
-0.044582 0.049982 4.013392 45 63 26
-0.079249 0.034834 4.017564 36 45 26
-0.070669 0.037937 4.016228 57 74 39
-0.060953 0.040147 4.014210 52 68 34
-0.053264 0.040823 4.014378 45 58 30
-0.044382 0.039693 4.012979 48 64 29
-0.033236 0.042277 4.016584 2 2 2
-0.080458 0.030633 4.015727 7 9 6
-0.071795 0.031532 4.013727 40 52 26
-0.062401 0.030464 4.013855 41 53 29
-0.054287 0.032756 4.012733 23 29 16
-0.051467 0.118084 4.024648 4 5 4
-0.068731 0.106553 4.028007 1 2 4
-0.060445 0.106519 4.027195 40 53 21
-0.053035 0.106824 4.024997 18 24 12
-0.043934 0.105881 4.025513 7 9 6
-0.035454 0.105276 4.023282 1 0 2
-0.069432 0.098416 4.027511 73 100 35
-0.061374 0.098405 4.025935 85 113 43
-0.052472 0.098821 4.024965 67 87 40
-0.044312 0.099183 4.023634 38 48 25
-0.035724 0.101097 4.022261 93 121 52
-0.104815 0.085641 4.026797 90 126 41
-0.077553 0.093967 4.027891 8 9 5
-0.070618 0.087847 4.027240 82 113 39
-0.061484 0.089215 4.025326 90 124 42
-0.052646 0.090045 4.024626 89 121 44
-0.043945 0.090898 4.023343 61 80 34
-0.033649 0.089947 4.023682 4 5 3
-0.020383 0.085694 4.022324 1 0 1
-0.100352 0.080652 4.024575 89 124 41
-0.090995 0.078802 4.024584 91 125 40
-0.081270 0.078853 4.026217 64 89 28
-0.071189 0.078369 4.026127 89 125 40
-0.061771 0.079132 4.024938 94 129 44
-0.053292 0.079115 4.023871 89 121 43
-0.043714 0.078987 4.023932 49 66 26
-0.035542 0.080498 4.023818 1 1 1
-0.090079 0.069015 4.026670 52 69 28
-0.080881 0.068428 4.026422 69 95 34
-0.071620 0.068725 4.025628 82 115 40
-0.062285 0.069510 4.024677 89 125 41
-0.052877 0.070403 4.023491 89 123 42
-0.043923 0.071034 4.023815 72 99 36
-0.034033 0.069922 4.022156 35 49 18
-0.098367 0.060272 4.028856 0 1 1
-0.091219 0.058772 4.025646 31 43 15
-0.080169 0.059380 4.027107 51 68 30
-0.072066 0.058516 4.025399 72 96 42
-0.062925 0.058797 4.024609 85 117 44
-0.054346 0.058023 4.024369 58 80 32
-0.043056 0.059052 4.024588 77 106 42
-0.091691 0.049955 4.024954 2 3 2
-0.081083 0.050898 4.025001 29 39 19
-0.071311 0.051298 4.024876 24 30 17
-0.063290 0.050265 4.023929 59 77 38
-0.054414 0.049048 4.023761 51 70 30
-0.043983 0.046690 4.025147 5 6 5
-0.090155 0.035591 4.027639 10 13 7
-0.081360 0.038651 4.025877 56 73 38
-0.072340 0.039819 4.025042 80 103 51
-0.062133 0.041084 4.024585 36 47 23
-0.053335 0.041540 4.023326 51 69 28
-0.090832 0.030517 4.026029 10 13 8
-0.083614 0.032380 4.021842 39 51 26
-0.070121 0.031486 4.025795 8 11 8
-0.066055 0.032223 4.021281 32 39 26
-0.062205 0.117164 4.037193 15 19 12
-0.056629 0.121343 4.031261 2 2 1
-0.081055 0.104707 4.038066 0 1 1
-0.070229 0.107497 4.037205 54 71 30
-0.062449 0.107692 4.035146 30 39 20
-0.053850 0.107183 4.034404 22 27 15
-0.044820 0.106467 4.034245 46 60 25
-0.078920 0.098648 4.037537 66 91 33
-0.070869 0.098809 4.036008 91 124 44
-0.062294 0.098796 4.034990 87 115 47
-0.053682 0.098524 4.033797 57 75 34
-0.044098 0.097285 4.033119 24 31 14
-0.099481 0.088678 4.038893 95 128 40
-0.095091 0.088080 4.034150 74 101 32
-0.080009 0.086386 4.037317 92 126 45
-0.071457 0.088567 4.035750 83 114 39
-0.062538 0.090000 4.034291 91 123 43
-0.053092 0.090479 4.033444 66 88 34
-0.043464 0.090659 4.033355 24 33 14
-0.035415 0.092213 4.033462 0 0 1
-0.103844 0.079603 4.031156 89 123 44
-0.090414 0.077230 4.036761 57 79 27
-0.080641 0.079414 4.036394 84 118 39
-0.072581 0.079070 4.034594 90 127 41
-0.062796 0.078772 4.033962 87 121 42
-0.053162 0.078015 4.033871 68 94 33
-0.044938 0.077915 4.033634 44 58 25
-0.099976 0.069691 4.037557 29 42 14
-0.090434 0.068985 4.036955 74 104 36
-0.082033 0.068917 4.035397 84 116 42
-0.072247 0.068947 4.034776 88 124 41
-0.063629 0.069684 4.033335 88 123 41
-0.052239 0.069831 4.034082 81 112 42
-0.042091 0.068104 4.034771 84 117 43
-0.108222 0.063361 4.038057 0 0 1
-0.101602 0.059450 4.035131 3 4 3
-0.090068 0.059060 4.036529 53 71 31
-0.081604 0.059211 4.035782 49 64 32
-0.072945 0.059118 4.034282 80 107 46
-0.063394 0.059625 4.033793 66 90 37
-0.054496 0.060574 4.034547 36 51 21
-0.044520 0.061660 4.033792 71 94 44
-0.107638 0.052579 4.034836 0 1 0
-0.101297 0.051275 4.033276 1 1 2
-0.091227 0.050132 4.035545 14 18 11
-0.081463 0.051500 4.035033 27 35 19
-0.072023 0.050763 4.034654 40 52 27
-0.063095 0.049029 4.034128 52 72 31
-0.052548 0.049753 4.035477 3 4 3
-0.043745 0.046799 4.030481 2 3 2
-0.098544 0.038015 4.037681 6 8 5
-0.092051 0.038333 4.036283 64 84 42
-0.082744 0.040728 4.034647 90 116 58
-0.072180 0.041276 4.035857 47 61 28
-0.063015 0.041157 4.033253 47 64 22
-0.054434 0.043081 4.030509 86 124 40
-0.097895 0.027430 4.036585 17 22 16
-0.093610 0.030911 4.034203 64 81 48
-0.069714 0.126592 4.048403 3 3 4
-0.077977 0.115566 4.048470 1 1 2
-0.072006 0.116411 4.046488 29 38 18
-0.064957 0.116836 4.045197 4 5 4
-0.087744 0.111273 4.048498 99 132 48
-0.080105 0.108289 4.047288 74 96 39
-0.072109 0.108635 4.045193 56 73 33
-0.063487 0.108414 4.044353 35 45 24
-0.055085 0.108537 4.043347 48 63 29
-0.090355 0.098214 4.047153 82 114 38
-0.080838 0.100129 4.046355 90 123 42
-0.072329 0.099599 4.044997 92 125 45
-0.063236 0.099719 4.044127 69 92 39
-0.054177 0.098122 4.043391 34 45 20
-0.043417 0.095221 4.043161 0 0 1
-0.099574 0.087690 4.047721 50 67 21
-0.089783 0.087428 4.047904 89 125 40
-0.082465 0.087527 4.045941 91 126 42
-0.072159 0.089055 4.044581 88 120 43
-0.063732 0.089430 4.044171 65 88 33
-0.053740 0.089834 4.043810 37 51 19
-0.046118 0.087420 4.043726 7 8 6
-0.112599 0.078682 4.048358 1 1 0
-0.100254 0.078431 4.046809 47 65 23
-0.091404 0.078723 4.045984 75 104 37
-0.081755 0.079261 4.045223 89 126 41
-0.073837 0.079022 4.044061 90 126 42
-0.063008 0.080464 4.043789 67 90 34
-0.053791 0.078991 4.043908 54 74 29
-0.045794 0.078835 4.041917 28 40 15
-0.109818 0.069091 4.046024 0 0 0
-0.100529 0.068834 4.046440 63 89 32
-0.091572 0.068879 4.045513 79 108 43
-0.082132 0.068882 4.045305 89 123 45
-0.073766 0.068678 4.044196 84 117 41
-0.063612 0.066957 4.044234 58 80 31
-0.051876 0.069988 4.044251 74 102 41
-0.043116 0.072925 4.040953 84 119 40
-0.110291 0.060115 4.044354 0 0 2
-0.100996 0.060691 4.046012 39 54 23
-0.090937 0.060928 4.045798 33 42 23
-0.082840 0.060028 4.044316 63 82 40
-0.073665 0.060200 4.043576 65 89 36
-0.063502 0.060520 4.043606 38 54 21
-0.056196 0.059631 4.040641 83 120 42
-0.110153 0.052710 4.041950 0 1 0
-0.101157 0.048031 4.044765 12 17 9
-0.091883 0.048903 4.045799 63 81 42
-0.081639 0.050454 4.045112 32 41 21
-0.073142 0.050448 4.044135 54 71 36
-0.064016 0.051270 4.042941 61 88 31
-0.053379 0.049932 4.043390 0 0 1
-0.101026 0.039262 4.045800 59 77 38
-0.092680 0.040921 4.043578 83 108 53
-0.081782 0.041187 4.045190 45 58 30
-0.072925 0.041538 4.043871 79 108 39
-0.066494 0.041844 4.045214 1 1 3
-0.108226 0.028997 4.049493 27 36 23
-0.102679 0.031023 4.044703 59 74 44
-0.079444 0.129048 4.058575 10 12 9
-0.073826 0.127406 4.053164 5 6 5
-0.102833 0.115037 4.057289 100 136 50
-0.090195 0.115667 4.058147 57 76 30
-0.081477 0.116925 4.056090 30 39 18
-0.073477 0.117201 4.054915 11 14 8
-0.064084 0.115949 4.055707 22 28 15
-0.056783 0.115416 4.052146 0 1 1
-0.100068 0.113626 4.052804 98 135 48
-0.089950 0.108089 4.057146 84 112 42
-0.082035 0.108889 4.055550 80 105 44
-0.072896 0.109024 4.054549 56 72 34
-0.064480 0.108798 4.053371 46 60 27
-0.108459 0.101279 4.059695 90 128 41
-0.100810 0.100301 4.056233 82 115 40
-0.090405 0.099428 4.056164 88 122 40
-0.082168 0.100732 4.055000 91 124 43
-0.072868 0.100391 4.054296 77 102 41
-0.063781 0.100194 4.053699 46 60 26
-0.052743 0.098760 4.053293 1 1 2
-0.109884 0.088799 4.056394 3 4 2
-0.100950 0.087595 4.056140 62 87 28
-0.092062 0.089061 4.055529 91 128 42
-0.082898 0.088657 4.054743 91 125 44
-0.073454 0.089229 4.054197 75 103 37
-0.063974 0.089697 4.053968 48 65 26
-0.053350 0.088345 4.054368 23 32 12
-0.117622 0.078887 4.056666 44 64 21
-0.111878 0.077786 4.058098 69 98 33
-0.101278 0.078148 4.056464 81 114 40
-0.092319 0.078314 4.055259 89 124 42
-0.083201 0.078969 4.054571 89 126 41
-0.073928 0.080750 4.053739 82 114 39
-0.063402 0.079580 4.055234 56 76 28
-0.052992 0.080488 4.053915 75 106 35
-0.047199 0.083744 4.057815 2 1 5
-0.120888 0.071139 4.057991 24 34 12
-0.109714 0.069845 4.057019 61 85 32
-0.101159 0.068653 4.056012 59 78 36
-0.092535 0.068377 4.054953 83 111 48
-0.083151 0.069413 4.054145 83 115 43
-0.073754 0.068970 4.054178 53 72 29
-0.063603 0.070694 4.052758 44 62 23
-0.057195 0.073123 4.051694 44 61 23
-0.120267 0.060618 4.056904 2 4 3
-0.111906 0.061440 4.054335 4 7 4
-0.100419 0.061999 4.056135 19 24 14
-0.092469 0.061177 4.054227 40 51 28
-0.083285 0.059203 4.053846 61 81 38
-0.074044 0.058341 4.053880 53 74 29
-0.062481 0.056260 4.055374 56 81 24
-0.100085 0.049680 4.056747 85 110 57
-0.092553 0.049030 4.055411 49 64 32
-0.082763 0.049856 4.054935 55 75 28
-0.074343 0.050849 4.052534 55 77 26
-0.056536 0.052848 4.051093 2 2 2
-0.101181 0.040618 4.053444 111 144 68
-0.093113 0.042162 4.054183 24 29 19
-0.081830 0.043672 4.052446 78 104 39
-0.075490 0.042530 4.050462 94 131 37
-0.110251 0.030539 4.054104 65 81 45
-0.106719 0.034041 4.053123 105 132 73
-0.085304 0.134777 4.065897 3 5 3
-0.090023 0.128335 4.067754 41 54 28
-0.084881 0.126768 4.065214 9 11 7
-0.111401 0.119047 4.065424 98 133 47
-0.100280 0.116821 4.066946 64 85 35
-0.091151 0.117781 4.066358 44 58 26
-0.083147 0.117505 4.064920 22 27 15
-0.074231 0.117523 4.064095 32 40 22
-0.065036 0.118811 4.064466 20 26 12
-0.108846 0.105748 4.064768 52 72 25
-0.099893 0.108906 4.066971 83 112 41
-0.091630 0.108774 4.065494 93 124 46
-0.082882 0.109029 4.064729 77 101 44
-0.074076 0.108790 4.063758 57 76 33
-0.066026 0.108086 4.063525 49 68 23
-0.119297 0.096243 4.062926 95 129 38
-0.111786 0.100420 4.064707 52 72 24
-0.100632 0.097414 4.067556 92 128 43
-0.092024 0.099892 4.064337 87 119 41
-0.082780 0.100424 4.064186 83 111 42
-0.073872 0.100624 4.063573 61 83 32
-0.063293 0.100916 4.063134 1 2 2
-0.130652 0.086141 4.069322 48 64 24
-0.120170 0.088108 4.067061 75 102 35
-0.112820 0.087600 4.067149 67 92 32
-0.101263 0.089267 4.065802 89 124 41
-0.092754 0.089010 4.064755 92 128 42
-0.083230 0.089003 4.064272 82 113 40
-0.073114 0.089528 4.063672 59 80 30
-0.063323 0.089260 4.063167 6 8 5
-0.053077 0.086874 4.063906 1 2 1
-0.130598 0.079019 4.068989 48 65 23
-0.119570 0.080034 4.066680 56 78 26
-0.111370 0.078820 4.066331 82 113 41
-0.102012 0.078815 4.065162 88 123 44
-0.092767 0.079078 4.064349 90 125 41
-0.083741 0.078682 4.063941 84 113 43
-0.073453 0.079914 4.064972 54 74 28
-0.063555 0.080999 4.062891 43 61 21
-0.056524 0.082655 4.060566 84 121 37
-0.046544 0.083539 4.061735 0 0 4
-0.130263 0.073459 4.065887 1 2 3
-0.120808 0.069805 4.066342 39 53 23
-0.110546 0.069639 4.066247 43 56 28
-0.102441 0.069000 4.064950 63 83 40
-0.093490 0.069777 4.063568 81 109 45
-0.083596 0.070124 4.064142 48 64 28
-0.075391 0.070504 4.061442 39 56 20
-0.130340 0.062638 4.062425 0 1 1
-0.110262 0.060191 4.067543 64 79 41
-0.101788 0.061322 4.064583 31 40 21
-0.093108 0.060472 4.064169 43 56 30
-0.083799 0.059502 4.064206 58 79 33
-0.071923 0.059720 4.063376 69 101 32
-0.064777 0.056864 4.060615 42 61 19
-0.130647 0.049633 4.068918 44 60 31
-0.102088 0.050359 4.065755 68 85 46
-0.092603 0.050232 4.063960 56 75 30
-0.084084 0.049786 4.062243 83 115 37
-0.076121 0.054050 4.067221 92 123 52
-0.095534 0.041896 4.060546 2 1 3
-0.099246 0.135825 4.079154 24 34 17
-0.093559 0.137820 4.075203 3 5 5
-0.107781 0.124585 4.079695 97 132 34
-0.100828 0.126282 4.077193 35 47 19
-0.092427 0.126700 4.074309 12 16 8
-0.082641 0.126505 4.075332 4 5 4
-0.073988 0.126524 4.074285 1 1 2
-0.119670 0.122951 4.073812 98 132 47
-0.110569 0.118653 4.076715 53 68 29
-0.101228 0.118370 4.076310 65 83 36
-0.092677 0.118483 4.075174 44 55 29
-0.083952 0.118539 4.074121 36 45 24
-0.074423 0.119906 4.073205 68 89 39
-0.109691 0.107913 4.077854 92 126 43
-0.102054 0.108980 4.075620 95 128 44
-0.092505 0.109521 4.074757 86 113 46
-0.083567 0.109085 4.073812 55 73 31
-0.074400 0.107775 4.072665 34 47 18
-0.066407 0.105330 4.071183 0 0 0
-0.121699 0.096564 4.075860 74 100 36
-0.110565 0.098681 4.077006 91 126 41
-0.103118 0.099026 4.074995 91 125 42
-0.092813 0.098734 4.074760 89 120 43
-0.082056 0.099346 4.074243 66 89 34
-0.073103 0.098646 4.073514 14 18 9
-0.062934 0.102558 4.072978 1 1 1
-0.137486 0.089269 4.076250 1 0 0
-0.130419 0.089857 4.076278 66 91 30
-0.120975 0.088686 4.076287 82 113 38
-0.111751 0.088821 4.075549 89 123 42
-0.102363 0.089539 4.074802 92 128 41
-0.093369 0.089987 4.073969 87 119 41
-0.084366 0.090363 4.073603 69 94 35
-0.074234 0.088856 4.073239 53 74 24
-0.064827 0.090523 4.073059 18 26 10
-0.057199 0.087692 4.072406 3 2 2
-0.137912 0.075961 4.075148 1 1 1
-0.130418 0.078139 4.076421 27 35 17
-0.120510 0.078708 4.076237 71 95 38
-0.112208 0.078591 4.075301 87 119 47
-0.102641 0.079292 4.074727 89 123 43
-0.093489 0.079385 4.074373 79 108 41
-0.083479 0.079422 4.073784 47 63 28
-0.072413 0.081240 4.074304 1 1 1
-0.066526 0.081729 4.070820 0 1 3
-0.138500 0.067912 4.077644 1 3 1
-0.132117 0.068667 4.075447 13 17 8
-0.120540 0.071000 4.076091 26 34 17
-0.112156 0.070186 4.074800 41 52 28
-0.103632 0.070097 4.073690 73 96 43
-0.092804 0.069823 4.074258 45 62 26
-0.086026 0.067069 4.071657 17 23 10
-0.138015 0.060163 4.079583 83 113 48
-0.135683 0.058654 4.075675 83 116 44
-0.118341 0.061196 4.077541 39 49 27
-0.111262 0.060143 4.075825 49 61 32
-0.103012 0.060805 4.074480 35 44 23
-0.093529 0.060503 4.073716 66 89 36
-0.082390 0.058552 4.075757 61 82 34
-0.072661 0.056369 4.072200 89 123 42
-0.139299 0.051589 4.078278 25 36 18
-0.133234 0.050123 4.074328 25 35 19
-0.122645 0.051457 4.076685 53 66 41
-0.108771 0.051733 4.075693 41 49 32
-0.103052 0.051800 4.074204 62 81 33
-0.093336 0.051788 4.071922 82 114 34
-0.071727 0.054132 4.071216 90 123 42
-0.103505 0.145014 4.086610 2 2 2
-0.110830 0.135607 4.088507 32 41 22
-0.102860 0.138210 4.084363 11 14 8
-0.122118 0.124776 4.087006 100 132 48
-0.110561 0.126734 4.086952 37 48 20
-0.103273 0.126525 4.085508 11 15 7
-0.093296 0.126940 4.085773 17 21 12
-0.083337 0.127053 4.084900 15 19 10
-0.137704 0.121526 4.088232 1 1 1
-0.130994 0.115904 4.084905 3 3 3
-0.120498 0.118750 4.086889 80 107 40
-0.110963 0.118531 4.086260 85 112 43
-0.102400 0.119054 4.084884 70 89 41
-0.094116 0.118921 4.083819 51 65 32
-0.084428 0.119888 4.083423 81 107 43
-0.129726 0.109883 4.088953 66 86 34
-0.119527 0.107259 4.087191 87 119 42
-0.111874 0.109421 4.085196 95 129 44
-0.102527 0.110243 4.084422 91 121 45
-0.093192 0.110190 4.083979 62 80 35
-0.084628 0.109078 4.083426 31 42 19
-0.072897 0.107071 4.081361 1 1 0
-0.150170 0.094974 4.089773 1 2 2
-0.140456 0.101129 4.088719 1 1 2
-0.131479 0.096946 4.086064 49 66 25
-0.120676 0.099139 4.086268 91 125 41
-0.112568 0.099012 4.084572 92 127 42
-0.103153 0.098654 4.084722 90 122 43
-0.093046 0.099897 4.085303 75 103 37
-0.084292 0.100299 4.083606 52 71 27
-0.074663 0.094867 4.083075 3 4 4
-0.140912 0.088487 4.086594 17 23 9
-0.130291 0.088098 4.086926 81 111 40
-0.122098 0.088608 4.085636 90 122 44
-0.112433 0.089113 4.085167 91 126 41
-0.103224 0.089513 4.083836 91 125 42
-0.093046 0.088714 4.084126 62 83 33
-0.083279 0.089614 4.083561 19 26 12
-0.071512 0.093608 4.081251 1 1 2
-0.065512 0.090962 4.084572 1 0 2
-0.147953 0.074697 4.089932 4 5 4
-0.138829 0.079947 4.086962 75 102 39
-0.130715 0.079258 4.086861 52 68 31
-0.122266 0.078555 4.085356 68 88 41
-0.112932 0.079383 4.084331 88 119 46
-0.103131 0.079663 4.083721 69 93 37
-0.092869 0.080056 4.082576 36 48 20
-0.085795 0.082496 4.081962 1 2 0
-0.149633 0.065207 4.088522 86 121 43
-0.142583 0.069007 4.085275 36 52 18
-0.130974 0.071468 4.085581 11 13 9
-0.121669 0.070976 4.085015 28 36 21
-0.113090 0.070234 4.083914 53 69 33
-0.103049 0.069228 4.083996 62 84 34
-0.093936 0.067335 4.083498 51 74 24
-0.086194 0.064936 4.089064 0 1 0
-0.149230 0.059152 4.088509 70 95 44
-0.142432 0.059456 4.083684 75 100 44
-0.130645 0.057871 4.087204 47 58 35
-0.121267 0.059945 4.086072 58 74 40
-0.112675 0.059421 4.084497 53 68 33
-0.103421 0.059452 4.083562 69 94 32
-0.092133 0.061004 4.084769 81 110 41
-0.084840 0.058867 4.082283 91 124 44
-0.151107 0.051531 4.087833 6 10 5
-0.142277 0.053259 4.084735 7 9 6
-0.133517 0.051507 4.084429 20 24 16
-0.125984 0.052901 4.080413 53 65 39
-0.110290 0.053622 4.082249 72 93 40
-0.103021 0.053431 4.081208 99 131 49
-0.121166 0.136278 4.097654 62 82 31
-0.110943 0.137493 4.092803 23 30 16
-0.105143 0.136151 4.094650 1 1 2
-0.138546 0.129230 4.098115 97 131 44
-0.131389 0.128149 4.096793 99 131 46
-0.120768 0.128049 4.096795 59 77 31
-0.112662 0.127546 4.095266 32 40 20
-0.103288 0.127276 4.094633 24 30 17
-0.093905 0.127753 4.094366 59 74 36
-0.087302 0.125777 4.090086 101 132 62
-0.157371 0.117658 4.099454 2 2 2
-0.141890 0.119056 4.096559 4 6 3
-0.128802 0.120088 4.098082 67 91 31
-0.120499 0.119436 4.096373 92 123 43
-0.112614 0.118949 4.094775 90 118 47
-0.103287 0.118741 4.094183 62 80 36
-0.094215 0.118780 4.093915 60 80 32
-0.151171 0.110303 4.096953 3 3 3
-0.143940 0.107587 4.097085 44 62 20
-0.130534 0.107319 4.097378 92 125 43
-0.121377 0.108094 4.095144 89 122 41
-0.112984 0.109891 4.093993 90 122 42
-0.102965 0.110411 4.094347 71 93 37
-0.093659 0.109817 4.093622 47 62 26
-0.084653 0.110183 4.093426 1 1 2
-0.077341 0.109046 4.093834 1 0 2
-0.160636 0.100383 4.096945 0 0 1
-0.154540 0.096698 4.096176 1 1 2
-0.140942 0.098446 4.096720 69 93 33
-0.131238 0.099156 4.096340 86 117 42
-0.121999 0.099795 4.094523 92 127 41
-0.112894 0.099224 4.094390 91 124 43
-0.103599 0.099768 4.093269 77 105 37
-0.093712 0.100425 4.091746 75 101 37
-0.084105 0.104014 4.091529 3 1 2
-0.150964 0.087847 4.099473 46 63 23
-0.140767 0.088457 4.096757 75 102 40
-0.132535 0.087987 4.095501 87 119 45
-0.122250 0.088824 4.095144 91 125 43
-0.113686 0.089464 4.093922 90 123 43
-0.103025 0.090084 4.093846 60 81 31
-0.094412 0.089085 4.092413 38 53 18
-0.085631 0.090164 4.094398 1 2 1
-0.162086 0.075689 4.099556 0 0 1
-0.150819 0.078875 4.097501 31 44 17
-0.140642 0.080456 4.096410 37 48 23
-0.131930 0.079408 4.095266 45 57 30
-0.123238 0.079532 4.094061 77 101 44
-0.113046 0.080617 4.094196 62 82 34
-0.104200 0.080916 4.092968 23 31 15
-0.093493 0.082076 4.093815 1 1 2
-0.153056 0.068995 4.095028 72 100 36
-0.141015 0.072058 4.097252 12 14 10
-0.131316 0.070683 4.095263 38 48 27
-0.122736 0.071039 4.094149 39 50 26
-0.113823 0.070021 4.094194 58 77 33
-0.104123 0.069724 4.093453 73 102 35
-0.095047 0.067141 4.092520 31 42 16
-0.159727 0.058126 4.096888 38 51 27
-0.153817 0.059686 4.092657 64 85 38
-0.139233 0.058577 4.095198 66 79 46
-0.130097 0.060783 4.095465 51 65 35
-0.122713 0.059635 4.094225 51 64 30
-0.113042 0.058841 4.093622 81 113 37
-0.103970 0.061502 4.092100 89 122 45
-0.094130 0.062411 4.093196 91 124 42
-0.161754 0.052304 4.095908 1 2 3
-0.153987 0.052629 4.090428 10 12 7
-0.129227 0.053626 4.097579 3 4 2
-0.123411 0.155201 4.106164 1 1 2
-0.128740 0.149244 4.109132 21 27 15
-0.122681 0.148489 4.103779 17 22 12
-0.138024 0.137209 4.109299 100 134 33
-0.130697 0.137090 4.107300 51 68 24
-0.123168 0.136132 4.105881 23 29 13
-0.111893 0.136548 4.106478 3 4 4
-0.105200 0.136997 4.104905 8 11 7
-0.155352 0.127635 4.105951 0 0 0
-0.139310 0.129393 4.107638 66 87 31
-0.130546 0.128699 4.106894 72 94 38
-0.122480 0.128695 4.105090 57 74 33
-0.113405 0.128574 4.104485 34 43 23
-0.103743 0.129398 4.104283 66 86 39
-0.095055 0.127102 4.101452 98 131 49
-0.161298 0.116573 4.105398 2 2 2
-0.150268 0.121437 4.106314 11 14 7
-0.140780 0.118564 4.106968 85 115 40
-0.130601 0.120899 4.106405 91 124 43
-0.122385 0.119823 4.104612 92 123 44
-0.112821 0.119368 4.104349 70 92 39
-0.104063 0.118563 4.103584 40 53 22
-0.096075 0.116767 4.104489 0 0 1
-0.157773 0.113108 4.106423 6 9 6
-0.152376 0.108401 4.105310 57 76 29
-0.140358 0.108271 4.107466 89 122 41
-0.132249 0.107722 4.105507 86 118 41
-0.122470 0.108513 4.104855 89 120 42
-0.112251 0.109990 4.104268 76 102 38
-0.103419 0.109988 4.104267 61 82 32
-0.093648 0.109647 4.101939 16 22 9
-0.160500 0.098925 4.103543 0 1 0
-0.150499 0.097894 4.107021 78 105 37
-0.141739 0.097877 4.106256 86 118 41
-0.132075 0.099182 4.105348 92 127 42
-0.122837 0.099870 4.104387 92 126 43
-0.114114 0.100756 4.103712 72 97 35
-0.103364 0.101278 4.103620 71 99 32
-0.097102 0.098069 4.100529 1 0 2
-0.159408 0.087966 4.108152 60 79 32
-0.150471 0.088746 4.106874 59 78 33
-0.142190 0.088822 4.105485 74 98 43
-0.133193 0.088949 4.104561 90 120 47
-0.122782 0.089778 4.104661 83 109 44
-0.113976 0.088197 4.103998 43 57 24
-0.104401 0.086851 4.102907 2 2 2
-0.088278 0.092718 4.100941 1 0 2
-0.167744 0.080633 4.109481 0 1 1
-0.162071 0.078644 4.106277 39 54 19
-0.150883 0.080932 4.105494 24 31 15
-0.141413 0.080590 4.105150 26 33 19
-0.133003 0.079747 4.103902 56 72 35
-0.123657 0.078882 4.104102 65 86 35
-0.113155 0.079792 4.103034 41 57 21
-0.103530 0.075998 4.100652 15 18 9
-0.169458 0.067927 4.109043 81 106 48
-0.161279 0.069949 4.103863 87 118 47
-0.151925 0.072945 4.104341 19 26 10
-0.140935 0.069750 4.105256 39 49 26
-0.132459 0.069621 4.104761 46 59 28
-0.122723 0.071464 4.103425 52 68 31
-0.112669 0.069770 4.103924 79 106 41
-0.102725 0.067892 4.102844 70 95 32
-0.179245 0.054335 4.108605 1 1 2
-0.171997 0.059814 4.106714 28 36 19
-0.165265 0.059763 4.101823 39 49 27
-0.149885 0.057681 4.109291 87 113 50
-0.142215 0.057035 4.106238 41 51 28
-0.132470 0.060806 4.103860 46 61 26
-0.123477 0.061685 4.103697 89 120 38
-0.116685 0.058307 4.102595 93 131 38
-0.170738 0.053775 4.102974 0 1 2
-0.148365 0.054003 4.109571 48 61 33
-0.134588 0.053568 4.104177 2 2 2
-0.141087 0.146463 4.116891 35 46 23
-0.132919 0.147264 4.114204 27 35 19
-0.119513 0.144338 4.116460 1 1 3
-0.115624 0.144533 4.119156 1 1 0
-0.159304 0.138968 4.118191 98 132 45
-0.151191 0.137606 4.116565 99 134 39
-0.141098 0.137763 4.117230 57 75 28
-0.132638 0.136867 4.115477 27 35 16
-0.122806 0.136596 4.115007 16 20 12
-0.113577 0.137398 4.114682 27 34 17
-0.167560 0.128919 4.118855 1 2 2
-0.162157 0.127902 4.115179 4 5 4
-0.149853 0.129696 4.117314 40 54 19
-0.140675 0.128877 4.116710 85 113 42
-0.132388 0.129179 4.114893 80 104 43
-0.123058 0.128904 4.114529 56 71 34
