ply
format ascii 1.0
element vertex 1276
property float x
property float y
property float z
property uchar red
property uchar green
property uchar blue
end_header
0.238875 -0.014845 2.634903 100 115 50
0.248990 -0.015260 2.635209 100 144 60
0.239396 -0.006425 2.634768 100 120 57
0.248527 -0.005864 2.635318 100 151 74
0.240568 0.002293 2.636407 100 133 70
0.216259 -0.051834 2.645533 100 9 6
0.239578 -0.055251 2.645687 100 44 27
0.247520 -0.052170 2.646454 100 26 15
0.218792 -0.042414 2.645914 100 72 30
0.237194 -0.044234 2.644880 100 146 76
0.247303 -0.045610 2.643367 100 92 54
0.228384 -0.031446 2.643832 100 13 7
0.237833 -0.032519 2.644513 100 89 44
0.250364 -0.032228 2.643639 100 103 49
0.229796 -0.023189 2.644620 100 34 18
0.238672 -0.022897 2.644816 100 117 45
0.248210 -0.023975 2.644876 100 136 56
0.229858 -0.015524 2.645119 100 38 20
0.239450 -0.015119 2.645210 100 116 49
0.248656 -0.015097 2.645303 100 146 59
0.239504 -0.006868 2.645532 100 112 53
0.248179 -0.005336 2.645427 100 144 69
0.241096 0.003144 2.645246 100 134 70
0.251023 0.002098 2.646023 100 148 78
0.239556 -0.055847 2.655725 100 47 30
0.246436 -0.050123 2.655008 100 50 31
0.218656 -0.042482 2.655071 100 73 28
0.238596 -0.045544 2.653650 100 146 85
0.247360 -0.046994 2.655976 100 131 74
0.228736 -0.032137 2.653753 100 45 19
0.238843 -0.033922 2.654191 100 68 34
0.251976 -0.031115 2.655475 100 118 52
0.229733 -0.023252 2.654957 100 30 16
0.238401 -0.022431 2.654959 100 113 43
0.248922 -0.022668 2.654668 100 140 58
0.229400 -0.015510 2.655150 100 31 17
0.239524 -0.015061 2.654974 100 113 47
0.248460 -0.015322 2.655502 100 144 56
0.239740 -0.006369 2.655103 100 119 55
0.248610 -0.006288 2.655162 100 131 60
0.241165 0.003299 2.652618 100 134 65
0.249501 0.002764 2.654456 100 157 79
0.256137 0.011028 2.658734 100 163 78
0.239037 -0.055937 2.665190 100 50 32
0.247238 -0.049936 2.665493 100 63 38
0.226938 -0.042149 2.664230 100 116 43
0.240030 -0.045214 2.665205 100 147 82
0.248887 -0.044019 2.666312 100 138 75
0.228429 -0.031311 2.665738 100 137 57
0.237932 -0.032071 2.665231 100 69 29
0.248601 -0.030038 2.666267 100 130 58
0.229798 -0.023100 2.664651 100 24 13
0.238372 -0.021895 2.664789 100 114 45
0.249229 -0.021978 2.664460 100 139 57
0.258325 -0.023111 2.665134 100 65 29
0.229597 -0.015226 2.664908 100 32 18
0.239425 -0.015353 2.665009 100 114 46
0.248297 -0.015606 2.665197 100 139 53
0.258269 -0.014493 2.665524 100 93 40
0.239513 -0.005902 2.664694 100 106 52
0.249030 -0.005981 2.664982 100 129 56
0.258661 -0.005994 2.665599 100 109 50
0.241251 0.001996 2.664682 100 131 67
0.248242 0.003170 2.665165 100 150 75
0.258820 0.005216 2.664977 100 151 73
0.258988 0.012529 2.664737 100 158 81
0.238698 -0.056686 2.674396 100 44 27
0.247045 -0.049848 2.675113 100 73 44
0.239969 -0.045750 2.675493 100 147 83
0.249937 -0.043258 2.675828 100 140 75
0.229609 -0.030938 2.674716 100 79 33
0.239015 -0.032318 2.674079 100 51 23
0.245181 -0.031039 2.676848 100 117 54
0.257630 -0.031652 2.673997 100 44 23
0.230330 -0.022731 2.674940 100 28 14
0.237809 -0.021687 2.674685 100 110 46
0.249504 -0.021821 2.674240 100 140 57
0.258470 -0.023020 2.674666 100 86 39
0.229734 -0.016115 2.674506 100 25 13
0.239435 -0.015598 2.675091 100 117 46
0.248708 -0.015231 2.675214 100 140 50
0.257977 -0.015170 2.675374 100 109 46
0.238886 -0.005625 2.675692 100 86 43
0.249069 -0.005117 2.675162 100 126 55
0.258204 -0.004937 2.675330 100 118 52
0.240248 0.001095 2.674823 100 91 49
0.248721 0.004190 2.674472 100 125 60
0.259119 0.005309 2.675499 100 136 64
0.259552 0.014224 2.675466 100 166 85
0.261183 0.031136 2.679958 100 144 79
0.238729 -0.055336 2.684589 100 78 47
0.247421 -0.049704 2.685192 100 84 52
0.240773 -0.044887 2.684071 100 147 80
0.246669 -0.046749 2.684736 100 141 74
0.260333 -0.043595 2.684702 100 52 30
0.229752 -0.031426 2.686591 100 65 26
0.238326 -0.031308 2.684820 100 23 10
0.246940 -0.032108 2.683425 100 117 54
0.260863 -0.031286 2.684006 100 50 23
0.230433 -0.022337 2.684800 100 25 13
0.237385 -0.021785 2.684822 100 105 47
0.248655 -0.022327 2.685113 100 131 53
0.258709 -0.023084 2.684680 100 91 40
0.230281 -0.016613 2.685165 100 18 10
0.239397 -0.015907 2.685081 100 115 45
0.248771 -0.014375 2.684810 100 137 46
0.257960 -0.015063 2.685227 100 127 54
0.239467 -0.005384 2.684969 100 95 47
0.248992 -0.005215 2.685294 100 131 57
0.258336 -0.004830 2.685222 100 126 54
0.243791 0.003769 2.683571 100 145 82
0.249681 0.003312 2.685907 100 105 47
0.258603 0.002821 2.685478 100 119 51
0.248594 0.011299 2.681402 100 163 75
0.260616 0.014964 2.684700 100 161 80
0.267529 0.013899 2.684763 100 113 57
0.257912 0.027090 2.681370 100 170 91
0.261057 0.031061 2.685185 100 161 87
0.264153 0.032445 2.686211 100 124 69
0.242375 -0.062391 2.694154 100 0 2
0.238720 -0.056042 2.694195 100 80 47
0.256066 -0.051813 2.698142 100 9 6
0.241072 -0.046178 2.694461 100 147 83
0.247425 -0.047768 2.696213 100 121 66
0.259469 -0.041344 2.695786 100 113 61
0.229684 -0.032618 2.692528 100 70 28
0.237031 -0.030350 2.695083 100 0 0
0.262609 -0.030303 2.693858 100 6 4
0.230014 -0.022278 2.694924 100 14 8
0.237278 -0.022053 2.694776 100 94 45
0.247642 -0.022366 2.695064 100 137 57
0.259128 -0.023402 2.694681 100 97 42
0.267830 -0.022534 2.695028 100 16 10
0.230858 -0.016340 2.695164 100 22 10
0.239607 -0.015865 2.695159 100 115 46
0.248764 -0.013689 2.694811 100 135 45
0.258515 -0.013958 2.694959 100 137 57
0.267995 -0.014984 2.695330 100 20 10
0.239350 -0.004653 2.694729 100 82 42
0.249207 -0.005156 2.695306 100 131 54
0.258464 -0.004788 2.695246 100 135 54
0.268443 -0.002801 2.694981 100 59 26
0.237866 0.001236 2.693803 100 27 15
0.250266 0.002493 2.694951 100 101 43
0.258917 0.003187 2.695612 100 109 47
0.268924 0.003983 2.695037 100 81 40
0.260323 0.015461 2.695905 100 138 67
0.268036 0.014283 2.695570 100 138 70
0.261552 0.026048 2.695274 100 170 91
0.268168 0.020941 2.696254 100 116 54
0.261138 0.030689 2.690851 100 169 93
0.266573 0.033217 2.695698 100 121 66
0.242513 -0.062390 2.705329 100 1 0
0.238180 -0.056135 2.704489 100 95 57
0.251099 -0.052128 2.709505 100 19 12
0.255672 -0.051763 2.705580 100 12 7
0.233784 -0.044600 2.709144 100 148 71
0.239779 -0.046125 2.704947 100 146 77
0.246975 -0.048778 2.704327 100 113 65
0.260545 -0.041631 2.705278 100 108 59
0.267858 -0.045318 2.704873 100 4 4
0.225775 -0.030471 2.706756 100 3 4
0.239672 -0.032906 2.705948 100 123 52
0.253341 -0.036516 2.702012 100 144 70
0.230054 -0.022392 2.704996 100 13 7
0.238189 -0.022192 2.704773 100 93 42
0.248229 -0.021309 2.704853 100 140 63
0.260130 -0.022711 2.704854 100 97 43
0.267753 -0.023140 2.705160 100 17 10
0.230597 -0.015878 2.704974 100 15 7
0.239287 -0.016080 2.704916 100 105 44
0.248133 -0.013367 2.704851 100 136 47
0.258793 -0.013557 2.704606 100 140 58
0.268215 -0.013782 2.704914 100 43 21
0.238946 -0.004532 2.704464 100 70 37
0.249515 -0.005478 2.705169 100 135 50
0.258358 -0.005564 2.705236 100 145 57
0.267812 -0.003667 2.705121 100 76 33
0.240139 0.002925 2.704325 100 11 6
0.250141 0.003298 2.705734 100 81 37
0.259019 0.003867 2.705252 100 117 50
0.268493 0.004040 2.705544 100 88 41
0.259315 0.012257 2.707088 100 126 55
0.269005 0.013711 2.705426 100 138 70
0.261815 0.024641 2.705068 100 175 92
0.268318 0.023321 2.707051 100 151 83
0.261797 0.030927 2.706777 100 175 95
0.266962 0.032190 2.706403 100 152 83
0.242074 -0.062465 2.715735 100 13 7
0.238288 -0.055723 2.714788 100 114 66
0.246256 -0.051504 2.713913 100 62 36
0.232500 -0.044683 2.711959 100 147 69
0.239711 -0.047198 2.714574 100 148 79
0.245807 -0.049520 2.714948 100 124 69
0.259928 -0.040940 2.714818 100 122 66
0.269827 -0.046809 2.713258 100 4 3
0.226290 -0.029715 2.711544 100 1 1
0.240234 -0.030838 2.714618 100 127 37
0.253475 -0.036449 2.713786 100 144 70
0.231010 -0.022013 2.715194 100 22 10
0.239091 -0.022334 2.714927 100 88 38
0.246757 -0.022471 2.715538 100 126 55
0.259229 -0.022468 2.714430 100 98 47
0.268266 -0.022117 2.714318 100 34 18
0.230588 -0.015464 2.714822 100 10 6
0.239080 -0.016000 2.714924 100 87 38
0.248103 -0.013209 2.715010 100 139 51
0.259184 -0.013715 2.714610 100 137 57
0.268778 -0.013250 2.714569 100 56 26
0.239271 -0.004563 2.714781 100 61 33
0.249319 -0.005469 2.715007 100 138 50
0.258588 -0.005122 2.714945 100 148 56
0.267819 -0.005844 2.715649 100 82 36
0.240047 0.002238 2.715687 100 32 19
0.250368 0.003697 2.715088 100 86 39
0.258689 0.004205 2.714948 100 114 50
0.268306 0.004378 2.714824 100 101 44
0.252660 0.011259 2.718134 100 82 38
0.259492 0.012618 2.716450 100 96 41
0.268506 0.014259 2.716307 100 151 74
0.277819 0.015358 2.714923 100 46 25
0.266999 0.025418 2.715428 100 161 81
0.275338 0.021625 2.713670 100 103 55
0.270000 0.033506 2.714063 100 134 72
0.276581 0.036556 2.717870 100 28 16
0.237530 -0.060810 2.723920 100 87 53
0.233097 -0.056864 2.729878 100 141 84
0.238792 -0.053397 2.725103 100 137 76
0.240099 -0.047055 2.724543 100 147 77
0.244309 -0.046856 2.726635 100 151 89
0.261070 -0.041523 2.725115 100 121 69
0.271147 -0.046160 2.727297 100 14 9
0.240098 -0.030596 2.722637 100 0 2
0.261383 -0.029860 2.728527 100 77 40
0.275588 -0.030600 2.727433 100 131 65
0.230623 -0.023342 2.724276 100 23 11
0.239575 -0.022541 2.724684 100 74 33
0.246281 -0.022313 2.725304 100 125 54
0.257629 -0.022952 2.723779 100 103 44
0.268554 -0.022294 2.724148 100 27 14
0.231312 -0.015245 2.724817 100 15 8
0.239480 -0.016032 2.724929 100 78 35
0.248048 -0.013381 2.724723 100 138 54
0.258678 -0.013532 2.725189 100 135 57
0.268475 -0.013944 2.724509 100 70 31
0.277404 -0.012965 2.724256 100 8 4
0.239416 -0.004196 2.724839 100 43 22
0.249365 -0.005233 2.725107 100 138 49
0.258682 -0.004359 2.724990 100 147 53
0.267794 -0.005549 2.725202 100 111 48
0.276803 -0.005182 2.725340 100 22 8
0.239505 0.002960 2.725435 100 18 11
0.249857 0.003521 2.725391 100 107 49
0.258824 0.004712 2.724962 100 117 49
0.268228 0.005323 2.725000 100 114 48
0.277835 0.005145 2.725240 100 22 11
0.242070 0.014753 2.723729 100 0 2
0.248990 0.014840 2.723360 100 109 52
0.259847 0.013564 2.724702 100 58 25
0.269283 0.014209 2.725575 100 133 65
0.277711 0.015396 2.724858 100 63 33
0.269702 0.027262 2.724619 100 167 89
0.279258 0.023018 2.725229 100 62 32
0.261079 0.035757 2.725519 100 176 91
0.268333 0.032566 2.724026 100 171 92
0.276233 0.035517 2.725901 100 93 54
0.233661 -0.060199 2.730048 100 129 76
0.238220 -0.052796 2.737057 100 142 82
0.239943 -0.048543 2.734602 100 148 83
0.262194 -0.041212 2.734943 100 127 71
0.269457 -0.046022 2.735517 100 20 12
0.236239 -0.030755 2.736638 100 2 1
0.247160 -0.031195 2.735146 100 134 58
0.269237 -0.032728 2.734123 100 64 34
0.276797 -0.035649 2.734404 100 64 34
0.230896 -0.023998 2.733855 100 31 13
0.239455 -0.022346 2.734634 100 61 29
0.246500 -0.022292 2.734931 100 120 52
0.257975 -0.023227 2.734302 100 124 50
0.268274 -0.022544 2.734162 100 45 22
0.278398 -0.021807 2.734436 100 19 10
0.230800 -0.015303 2.734376 100 18 9
0.239504 -0.015888 2.734800 100 61 29
0.247756 -0.013859 2.735092 100 135 55
0.258420 -0.013386 2.734785 100 131 56
0.268705 -0.013362 2.734713 100 85 36
0.277843 -0.013856 2.734501 100 13 6
0.240106 -0.003902 2.734262 100 45 24
0.249558 -0.004758 2.734938 100 139 52
0.258633 -0.004071 2.734862 100 146 53
0.268108 -0.004091 2.734776 100 125 54
0.276700 -0.005469 2.735613 100 27 12
0.240926 0.002643 2.735538 100 12 8
0.250152 0.003510 2.734932 100 110 45
0.259081 0.004348 2.735105 100 130 50
0.268077 0.005706 2.735023 100 128 52
0.278265 0.006786 2.735317 100 40 18
0.251348 0.012823 2.735265 100 1 1
0.259648 0.013334 2.735312 100 67 30
0.269017 0.014451 2.735326 100 112 51
0.277351 0.014572 2.735683 100 85 44
0.269147 0.023950 2.735701 100 162 80
0.280174 0.023570 2.735416 100 74 39
0.272544 0.032716 2.737105 100 145 73
0.277639 0.034812 2.735819 100 103 58
0.234987 -0.053240 2.743804 100 144 83
0.239425 -0.049253 2.744632 100 152 90
0.263169 -0.040710 2.742815 100 136 72
0.269764 -0.044959 2.747291 100 55 32
0.279936 -0.047243 2.743446 100 1 0
0.231283 -0.032034 2.746400 100 61 29
0.246198 -0.031240 2.745853 100 98 27
0.258713 -0.039474 2.747362 100 148 76
0.264025 -0.036735 2.749761 100 148 74
0.279391 -0.033614 2.741129 100 82 42
0.229881 -0.023452 2.745257 100 24 12
0.238484 -0.023033 2.744979 100 50 21
0.247164 -0.022044 2.744974 100 116 52
0.258464 -0.023278 2.744612 100 126 53
0.270180 -0.021655 2.743802 100 38 17
0.276546 -0.022381 2.746496 100 41 17
0.231741 -0.014202 2.744287 100 17 8
0.239617 -0.015481 2.744779 100 48 23
0.248036 -0.014327 2.745058 100 128 52
0.257754 -0.012643 2.744699 100 140 57
0.268716 -0.013968 2.745228 100 86 37
0.277981 -0.014104 2.744855 100 2 2
0.239933 -0.004694 2.745033 100 36 17
0.249738 -0.004626 2.744937 100 132 53
0.258251 -0.004390 2.744759 100 146 55
0.268022 -0.003528 2.744591 100 141 60
0.277568 -0.003848 2.745270 100 39 18
0.241720 0.003180 2.745349 100 25 12
0.250060 0.003757 2.745046 100 118 49
0.259314 0.004133 2.744900 100 140 50
0.268097 0.005086 2.745361 100 141 56
0.278491 0.007203 2.744698 100 53 22
0.242826 0.012742 2.745785 100 0 1
0.251273 0.011788 2.740849 100 0 2
0.259993 0.013562 2.745216 100 57 26
0.269132 0.014240 2.745241 100 110 49
0.278311 0.014374 2.745588 100 80 39
0.287413 0.014998 2.745275 100 5 3
0.250603 0.021714 2.744062 100 0 0
0.258258 0.025409 2.748354 100 73 31
0.268937 0.024643 2.745922 100 129 60
0.279602 0.023807 2.745270 100 100 53
0.271269 0.031757 2.744550 100 169 88
0.278648 0.034803 2.745009 100 119 66
0.285794 0.039350 2.748182 100 4 2
0.267262 -0.043551 2.754737 100 100 58
0.278101 -0.048259 2.755750 100 9 6
0.232458 -0.032444 2.755760 100 52 27
0.241190 -0.030310 2.753799 100 136 52
0.245834 -0.032218 2.751941 100 98 27
0.259294 -0.036918 2.756847 100 137 66
0.283334 -0.030012 2.758011 100 104 51
0.230423 -0.022015 2.754013 100 21 12
0.238697 -0.023275 2.754021 100 50 21
0.248478 -0.021895 2.755016 100 108 47
0.257528 -0.023845 2.755166 100 107 50
0.270848 -0.023436 2.755141 100 114 49
0.277411 -0.023647 2.755561 100 109 44
0.231201 -0.015902 2.754786 100 70 31
0.240144 -0.014760 2.754969 100 34 17
0.248323 -0.014700 2.755146 100 120 51
0.258147 -0.013216 2.754709 100 142 56
0.269326 -0.012603 2.754739 100 97 42
0.277477 -0.014983 2.755443 100 30 14
0.232355 -0.007722 2.755140 100 1 3
0.240151 -0.005372 2.755453 100 43 16
0.249777 -0.004574 2.754944 100 124 52
0.258173 -0.004470 2.754939 100 147 54
0.268677 -0.003510 2.754558 100 142 60
0.278296 -0.002269 2.754532 100 50 23
0.285896 -0.005071 2.755085 100 24 9
0.242123 0.003042 2.755027 100 36 18
0.249774 0.004418 2.755318 100 109 46
0.259144 0.004860 2.754591 100 145 55
0.268458 0.004942 2.755101 100 147 58
0.277448 0.004991 2.755269 100 93 39
0.287276 0.006730 2.754857 100 23 9
0.242563 0.018012 2.750785 100 0 0
0.249145 0.015292 2.755445 100 21 7
0.259927 0.014449 2.755201 100 84 36
0.269049 0.014801 2.755075 100 106 46
0.278375 0.015213 2.754992 100 84 38
0.286327 0.015446 2.755458 100 9 5
0.253065 0.024210 2.757854 100 0 1
0.258744 0.023508 2.755786 100 109 51
0.269868 0.023991 2.755705 100 128 57
0.278553 0.023574 2.755647 100 121 64
0.287418 0.025493 2.755446 100 17 10
0.260606 0.031147 2.752701 100 116 49
0.273195 0.032088 2.752601 100 167 87
0.278476 0.033753 2.755823 100 145 78
0.288551 0.034605 2.755979 100 13 8
0.288421 0.040808 2.759135 100 3 2
0.267092 -0.042722 2.766074 100 129 75
0.275676 -0.046109 2.763841 100 35 22
0.233503 -0.031771 2.764906 100 66 34
0.235239 -0.034473 2.768447 100 76 36
0.251462 -0.031779 2.766039 100 47 22
0.261952 -0.039510 2.765459 100 148 76
0.273202 -0.033482 2.766687 100 2 2
0.276032 -0.034941 2.768430 100 1 1
0.231142 -0.020325 2.765046 100 1 3
0.238957 -0.023166 2.764624 100 56 24
0.249644 -0.022651 2.765202 100 91 39
0.257234 -0.023451 2.765459 100 89 39
0.270874 -0.022148 2.765768 100 78 40
0.280789 -0.023342 2.763362 100 139 54
0.287694 -0.023841 2.766403 100 69 27
0.231451 -0.014399 2.764009 100 95 39
0.240651 -0.014570 2.764833 100 22 11
0.248690 -0.014551 2.764927 100 109 48
0.258027 -0.013632 2.765233 100 140 58
0.269553 -0.013106 2.764824 100 85 37
0.278141 -0.013643 2.765213 100 34 14
0.288537 -0.013633 2.763723 100 36 16
0.232253 -0.006175 2.765889 100 0 2
0.239691 -0.006806 2.764873 100 50 17
0.249989 -0.004657 2.764674 100 112 49
0.258368 -0.004434 2.765093 100 149 58
0.268519 -0.003745 2.764911 100 143 58
0.277983 -0.002500 2.764574 100 67 30
0.286534 -0.003083 2.765622 100 29 12
0.240181 0.004080 2.764433 100 30 17
0.249525 0.004184 2.764943 100 95 40
0.258947 0.004977 2.764892 100 147 60
0.269063 0.005634 2.764990 100 150 59
0.277884 0.005329 2.765101 100 108 45
0.286394 0.004822 2.765848 100 51 24
0.242067 0.015892 2.767472 100 0 2
0.248743 0.013984 2.766171 100 84 29
0.259669 0.013793 2.764751 100 119 43
0.269040 0.014857 2.765242 100 115 50
0.278190 0.016020 2.764566 100 94 40
0.286694 0.015888 2.765306 100 30 13
0.243696 0.021386 2.766565 100 1 0
0.244633 0.021264 2.769934 100 2 0
0.259838 0.025865 2.765410 100 139 66
0.270871 0.023787 2.764190 100 133 59
0.278541 0.023984 2.765679 100 118 59
0.287827 0.025275 2.764934 100 25 15
0.269305 0.031897 2.763280 100 169 86
0.279812 0.033460 2.766198 100 149 80
0.288272 0.033994 2.765884 100 45 26
0.294918 0.034188 2.765250 100 0 0
0.292133 0.040963 2.766959 100 0 0
0.268399 -0.042724 2.774830 100 133 80
0.233695 -0.031350 2.774688 100 76 37
0.236429 -0.033830 2.775478 100 65 29
0.258196 -0.034974 2.773003 100 50 26
0.278132 -0.033534 2.773453 100 15 9
0.289390 -0.030042 2.775653 100 129 45
0.232797 -0.021987 2.772806 100 0 2
0.239837 -0.023034 2.774306 100 46 20
0.251283 -0.021917 2.773872 100 130 61
0.257927 -0.022812 2.774222 100 82 32
0.268981 -0.022794 2.775079 100 102 52
0.276940 -0.023096 2.778126 100 117 54
0.286551 -0.023939 2.774686 100 143 54
0.230774 -0.015111 2.774458 100 110 47
0.241140 -0.013456 2.774168 100 11 6
0.248957 -0.013894 2.774849 100 94 43
0.257530 -0.013111 2.775418 100 139 57
0.268991 -0.013503 2.774867 100 103 47
0.278156 -0.012593 2.774349 100 42 20
0.285084 -0.015310 2.778043 100 0 1
0.232527 -0.006291 2.774146 100 49 18
0.239759 -0.006127 2.775089 100 35 13
0.249971 -0.005260 2.774750 100 93 41
0.258549 -0.004033 2.774769 100 147 58
0.268402 -0.003603 2.774578 100 146 56
0.277416 -0.003342 2.774881 100 88 37
0.287314 -0.001947 2.774902 100 28 11
0.241420 0.004972 2.775141 100 64 34
0.249809 0.005034 2.774709 100 74 34
0.259098 0.004786 2.775041 100 149 62
0.268878 0.005872 2.774997 100 149 56
0.277943 0.006044 2.774775 100 122 52
0.286503 0.005542 2.775618 100 37 18
0.241214 0.011972 2.775693 100 147 56
0.248819 0.015611 2.775108 100 72 24
0.259435 0.014231 2.774713 100 136 50
0.269593 0.014506 2.775258 100 127 53
0.277909 0.015050 2.775459 100 109 47
0.287695 0.016756 2.774806 100 38 18
0.296496 0.012259 2.777804 100 90 50
0.260328 0.024125 2.773729 100 50 22
0.269859 0.023263 2.775626 100 84 38
0.278445 0.023833 2.775199 100 116 52
0.287649 0.024107 2.775403 100 33 18
0.297033 0.024238 2.776172 100 2 2
0.262702 0.031530 2.774492 100 157 77
0.270777 0.031848 2.771484 100 84 41
0.279884 0.034045 2.774271 100 157 81
0.287884 0.034878 2.775327 100 73 42
0.296608 0.036111 2.773416 100 1 1
0.290191 0.041279 2.775522 100 22 13
0.296048 0.042148 2.775190 100 0 2
0.237374 -0.031508 2.784225 100 79 40
0.282205 -0.031880 2.782483 100 36 23
0.286300 -0.033985 2.785290 100 29 18
0.239882 -0.022457 2.784029 100 79 32
0.248944 -0.023283 2.784419 100 125 58
0.257654 -0.021998 2.785423 100 108 49
0.264214 -0.021135 2.782056 100 117 47
0.279252 -0.024321 2.783088 100 103 52
0.289322 -0.026428 2.782518 100 138 53
0.230188 -0.014651 2.783739 100 92 41
0.241204 -0.013805 2.783527 100 11 6
0.249172 -0.013212 2.785000 100 71 34
0.257678 -0.012978 2.784962 100 137 55
0.267895 -0.014070 2.785030 100 100 44
0.278315 -0.013412 2.784407 100 27 14
0.285617 -0.013668 2.785254 100 0 2
0.239624 -0.005567 2.784675 100 26 11
0.249679 -0.005260 2.785003 100 82 35
0.258370 -0.004260 2.785110 100 143 59
0.267809 -0.003773 2.785306 100 145 56
0.276944 -0.004210 2.785414 100 103 43
0.288082 -0.002449 2.784370 100 5 3
0.296067 -0.001428 2.784638 100 95 29
0.240619 0.004883 2.785002 100 38 20
0.250242 0.005571 2.784748 100 67 29
0.259052 0.004540 2.784889 100 146 64
0.268905 0.005415 2.785236 100 150 57
0.277910 0.006607 2.784796 100 132 56
0.287128 0.006065 2.785565 100 37 16
0.241457 0.011193 2.786274 100 60 33
0.249597 0.014038 2.785162 100 33 14
0.259888 0.013113 2.785533 100 138 57
0.269949 0.014574 2.785106 100 139 56
0.278486 0.014695 2.785375 100 123 53
0.287728 0.014901 2.785570 100 76 35
0.298223 0.014134 2.784999 100 78 38
0.243360 0.024165 2.787456 100 151 48
0.249075 0.023288 2.784510 100 52 16
0.260249 0.024055 2.785253 100 83 28
0.270003 0.022768 2.785756 100 75 36
0.279451 0.024417 2.784953 100 104 45
0.287908 0.024478 2.784866 100 46 23
0.295919 0.024887 2.784821 100 2 1
0.272950 0.033962 2.783802 100 53 20
0.280278 0.034128 2.784476 100 160 83
0.289536 0.035714 2.785040 100 71 40
0.297217 0.035808 2.783813 100 5 3
0.289120 0.041324 2.785266 100 53 27
0.296548 0.042180 2.785038 100 1 2
0.240808 -0.031663 2.795913 100 71 35
0.290879 -0.032248 2.792240 100 66 38
0.239485 -0.023796 2.794241 100 127 43
0.245598 -0.023398 2.793517 100 81 38
0.257605 -0.020757 2.796951 100 147 72
0.264262 -0.020824 2.792771 100 117 47
0.279267 -0.021393 2.798377 100 122 52
0.286636 -0.025573 2.793518 100 107 53
0.232572 -0.013961 2.794307 100 91 40
0.241000 -0.012899 2.794383 100 31 13
0.249267 -0.012930 2.794590 100 57 28
0.257691 -0.012908 2.795349 100 133 57
0.268517 -0.013056 2.794669 100 117 50
0.278088 -0.013760 2.794912 100 70 30
0.284175 -0.010669 2.799215 100 153 53
0.240421 -0.004324 2.794962 100 29 12
0.249008 -0.005791 2.794814 100 50 24
0.258569 -0.004655 2.794749 100 137 58
0.268292 -0.003014 2.794886 100 146 56
0.277815 -0.003804 2.794362 100 108 46
0.287565 -0.003021 2.794789 100 4 3
0.295345 -0.001050 2.794100 100 2 1
0.240247 0.004511 2.795700 100 61 28
0.250733 0.005750 2.794662 100 36 19
0.259638 0.004834 2.794867 100 142 63
0.268656 0.005265 2.795100 100 152 58
0.278075 0.006935 2.795320 100 142 60
0.287977 0.007076 2.795128 100 45 19
0.296851 0.006017 2.797472 100 63 29
0.239635 0.012739 2.795514 100 50 20
0.251607 0.013843 2.794711 100 17 10
0.259168 0.014141 2.795024 100 112 57
0.269871 0.014744 2.794741 100 145 58
0.278970 0.014642 2.795224 100 140 59
0.287188 0.014914 2.795200 100 75 35
0.298847 0.014600 2.796138 100 89 39
0.243665 0.023614 2.791081 100 151 49
0.252084 0.021777 2.797413 100 1 2
0.260451 0.023950 2.795155 100 89 35
0.269562 0.023315 2.795377 100 109 48
0.279548 0.024985 2.794464 100 104 46
0.288004 0.025676 2.794979 100 66 31
0.295936 0.025069 2.795291 100 2 2
0.303871 0.027208 2.796260 100 0 4
0.262576 0.030932 2.796531 100 0 0
0.267780 0.031027 2.797349 100 169 85
0.280395 0.033961 2.795114 100 159 75
0.289003 0.034199 2.795087 100 97 56
0.296972 0.036326 2.796076 100 10 6
0.286624 0.041813 2.795658 100 133 67
0.298474 0.042227 2.792589 100 0 2
0.241966 -0.030957 2.804912 100 77 42
0.243064 -0.027211 2.805177 100 134 66
0.244533 -0.023352 2.805165 100 137 60
0.282134 -0.020199 2.800831 100 123 54
0.287872 -0.023439 2.801862 100 116 52
0.293904 -0.027625 2.802213 100 108 54
0.239161 -0.012730 2.803977 100 35 16
0.249950 -0.012377 2.804390 100 39 21
0.257623 -0.012082 2.805099 100 133 59
0.267307 -0.012821 2.805111 100 114 51
0.276375 -0.011797 2.804159 100 77 31
0.285442 -0.011019 2.802350 100 153 54
0.302821 -0.015183 2.804402 100 44 20
0.233244 -0.006250 2.800215 100 1 1
0.241158 -0.004876 2.803809 100 14 6
0.249746 -0.005910 2.804991 100 43 21
0.259153 -0.004420 2.804903 100 130 56
0.268091 -0.003249 2.804764 100 136 52
0.277788 -0.003648 2.805011 100 121 52
0.287700 -0.004881 2.805047 100 36 15
0.300492 -0.006111 2.804240 100 92 40
0.240471 0.004201 2.805282 100 40 20
0.250543 0.006086 2.804930 100 25 14
0.259595 0.005241 2.804662 100 126 61
0.268375 0.005713 2.805014 100 152 59
0.277903 0.006745 2.804330 100 145 58
0.288124 0.007062 2.804950 100 64 26
0.295794 0.006280 2.804991 100 21 7
0.305359 0.006959 2.806049 100 140 65
0.250196 0.013308 2.804753 100 13 7
0.259194 0.014468 2.805445 100 86 45
0.269642 0.014524 2.804857 100 149 65
0.279428 0.015031 2.805011 100 147 61
0.287435 0.015244 2.805525 100 88 41
0.298889 0.015620 2.806387 100 109 49
0.250065 0.025210 2.800903 100 2 2
0.260739 0.023647 2.805215 100 122 54
0.269879 0.024539 2.805392 100 108 42
0.278742 0.024281 2.804727 100 104 46
0.287797 0.025520 2.805123 100 71 31
0.296896 0.024687 2.804597 100 16 9
0.250925 0.034649 2.807410 100 146 60
0.255873 0.033772 2.803393 100 144 55
0.271566 0.033267 2.804223 100 170 88
0.281651 0.034128 2.805458 100 150 73
0.289025 0.034214 2.805129 100 116 65
0.297592 0.034525 2.805843 100 14 9
0.304665 0.030794 2.804190 100 0 0
0.288516 0.042900 2.804850 100 127 69
0.301442 0.043315 2.803170 100 0 0
0.242013 -0.031945 2.814296 100 69 33
0.243518 -0.026715 2.814695 100 139 67
0.245833 -0.022609 2.814050 100 141 61
0.282986 -0.022327 2.812074 100 122 56
0.287577 -0.023131 2.816476 100 124 58
0.239350 -0.013850 2.814732 100 2 2
0.250492 -0.011660 2.814332 100 25 14
0.258102 -0.011599 2.814224 100 123 56
0.268563 -0.012235 2.814939 100 126 55
0.276950 -0.013418 2.815968 100 90 39
0.290227 -0.012364 2.815882 100 112 42
0.300028 -0.018226 2.814972 100 1 0
0.233138 -0.006068 2.812584 100 0 1
0.241224 -0.004738 2.814722 100 1 1
0.250093 -0.004600 2.814779 100 29 14
0.258981 -0.004934 2.814977 100 124 56
0.267364 -0.003837 2.815386 100 130 53
0.277805 -0.002318 2.814107 100 127 55
0.286458 -0.004017 2.815789 100 69 28
0.294739 -0.003424 2.816614 100 0 2
0.239581 0.003229 2.814090 100 0 2
0.248417 0.005627 2.815639 100 50 26
0.259634 0.005049 2.814837 100 111 52
0.268524 0.005504 2.815063 100 152 60
0.278280 0.006671 2.814954 100 147 58
0.287920 0.007455 2.814803 100 89 37
0.296432 0.006761 2.815451 100 8 4
0.251053 0.014572 2.814889 100 18 9
0.258777 0.014825 2.815292 100 62 35
0.269178 0.014140 2.815085 100 151 68
0.279621 0.014933 2.814905 100 149 60
0.287956 0.015676 2.815162 100 102 48
0.297156 0.016004 2.814999 100 75 34
0.305209 0.012491 2.814759 100 117 51
0.253330 0.026446 2.814679 100 1 1
0.259264 0.025476 2.814245 100 70 33
0.269943 0.024641 2.815135 100 123 50
0.278818 0.024153 2.815207 100 119 50
0.288180 0.025383 2.814764 100 80 35
0.296604 0.025252 2.814924 100 15 8
0.305368 0.029816 2.810779 100 0 1
0.251561 0.032836 2.818012 100 0 2
0.255532 0.035392 2.810763 100 147 60
0.270533 0.032273 2.815625 100 128 59
0.281091 0.033896 2.814894 100 129 61
0.288680 0.033922 2.814910 100 122 63
0.297533 0.035684 2.815256 100 20 12
0.303939 0.031930 2.816396 100 1 1
0.288798 0.042234 2.816862 100 140 79
0.296354 0.041833 2.818214 100 50 32
0.242323 -0.031309 2.822664 100 82 41
0.245392 -0.032344 2.828807 100 45 24
0.246797 -0.024346 2.824079 100 138 63
0.288939 -0.021801 2.823869 100 124 57
0.298382 -0.024040 2.825966 100 112 50
0.307645 -0.027180 2.824691 100 118 42
0.238391 -0.012579 2.826414 100 1 1
0.250566 -0.011276 2.823431 100 16 9
0.258724 -0.011327 2.824795 100 83 40
0.268928 -0.012187 2.824780 100 108 48
0.278087 -0.012634 2.825547 100 93 40
0.241895 -0.001577 2.824158 100 1 2
0.250671 -0.003927 2.824678 100 19 10
0.258859 -0.004442 2.824857 100 108 50
0.267710 -0.003794 2.825155 100 134 57
0.277365 -0.003237 2.825135 100 118 51
0.288263 -0.003736 2.824593 100 68 27
0.240826 0.004196 2.824847 100 0 1
0.250114 0.004388 2.825030 100 30 16
0.260009 0.004858 2.825083 100 103 47
0.268859 0.005654 2.824848 100 151 60
0.277941 0.006248 2.824991 100 152 59
0.287854 0.007123 2.825417 100 99 42
0.297500 0.006766 2.825147 100 16 8
0.305182 0.010290 2.821343 100 106 24
0.239900 0.013707 2.829272 100 50 24
0.250324 0.016017 2.825359 100 41 20
0.259228 0.014879 2.824914 100 57 33
0.269341 0.013897 2.824878 100 149 67
0.279528 0.015158 2.824970 100 150 58
0.288088 0.015797 2.824990 100 118 53
0.296441 0.015339 2.825868 100 41 18
0.308171 0.015367 2.824570 100 77 34
0.248796 0.023889 2.826373 100 0 0
0.260001 0.024763 2.824956 100 22 13
0.269323 0.024799 2.825170 100 124 59
0.278979 0.024798 2.825120 100 123 52
0.288946 0.024964 2.824913 100 97 43
0.297494 0.025789 2.825256 100 24 11
0.258194 0.032065 2.826095 100 23 13
0.270704 0.034159 2.824724 100 103 48
0.280369 0.034341 2.825286 100 126 62
0.288631 0.034235 2.824957 100 126 62
0.297529 0.034379 2.825161 100 27 16
0.304914 0.034514 2.825101 100 1 1
0.269396 0.042594 2.825978 100 85 45
0.283745 0.041922 2.827894 100 175 98
0.289559 0.043017 2.824242 100 130 74
0.297013 0.042626 2.824932 100 46 28
0.288348 0.067999 2.824962 100 156 61
0.247377 -0.025921 2.833075 100 135 65
0.280793 -0.022060 2.838442 100 6 4
0.289484 -0.024476 2.836563 100 13 8
0.300939 -0.026475 2.836988 100 87 45
0.310894 -0.027454 2.834132 100 118 48
0.240549 -0.009854 2.833681 100 0 0
0.249207 -0.011014 2.832716 100 2 2
0.257834 -0.011684 2.833569 100 77 42
0.269065 -0.012317 2.834349 100 81 41
0.278285 -0.014548 2.834818 100 81 37
0.286904 -0.013222 2.836484 100 125 56
0.309952 -0.019106 2.834861 100 133 58
0.242006 -0.002848 2.833731 100 0 1
0.251336 -0.003622 2.834434 100 19 10
0.259102 -0.004172 2.834961 100 90 43
0.267824 -0.003492 2.834507 100 133 58
0.277339 -0.004053 2.835258 100 97 44
0.288668 -0.004127 2.835612 100 86 32
0.240388 0.005694 2.833791 100 0 1
0.249835 0.004048 2.834615 100 14 8
0.259595 0.004505 2.834935 100 90 42
0.269142 0.005415 2.835046 100 147 60
0.277649 0.006946 2.835115 100 153 59
0.288382 0.007387 2.834753 100 98 39
0.296964 0.006764 2.835383 100 1 1
0.249727 0.014279 2.835063 100 74 34
0.259527 0.015877 2.834969 100 36 21
0.269078 0.014129 2.835040 100 146 67
0.279270 0.015253 2.835071 100 152 59
0.288113 0.016201 2.835019 100 131 57
0.296317 0.015820 2.835250 100 45 19
0.306288 0.017065 2.834946 100 141 64
0.251134 0.021732 2.835791 100 23 13
0.260668 0.024055 2.834346 100 15 9
0.270026 0.024440 2.835032 100 118 62
0.279678 0.025011 2.835010 100 125 53
0.288944 0.024648 2.835058 100 111 49
0.297574 0.025570 2.835281 100 44 19
0.307080 0.024576 2.833564 100 95 42
0.259246 0.035271 2.834910 100 5 3
0.269621 0.032496 2.835278 100 114 52
0.279057 0.033170 2.835287 100 111 53
0.288570 0.034921 2.835157 100 124 59
0.297866 0.034927 2.835297 100 35 20
0.306243 0.036391 2.835904 100 3 2
0.271981 0.042658 2.835229 100 85 45
0.277210 0.042197 2.836405 100 58 33
0.289622 0.043196 2.834598 100 136 77
0.298444 0.042715 2.836232 100 33 21
0.307341 0.045787 2.835458 100 1 2
0.282323 0.062674 2.834976 100 156 66
0.289547 0.067454 2.834301 100 143 65
0.312496 -0.029946 2.841203 100 110 44
0.273455 -0.019614 2.841455 100 1 1
0.280266 -0.020827 2.843036 100 6 3
0.288981 -0.025224 2.845213 100 5 3
0.301249 -0.026348 2.844781 100 70 41
0.308034 -0.022116 2.847328 100 120 61
0.251103 -0.010063 2.847863 100 2 2
0.255256 -0.010953 2.843481 100 48 21
0.269170 -0.012848 2.844406 100 124 68
0.277674 -0.014168 2.844428 100 68 35
0.289041 -0.015473 2.843304 100 109 53
0.295893 -0.012809 2.845896 100 133 60
0.243047 -0.006440 2.846319 100 0 0
0.252282 -0.004064 2.844761 100 14 8
0.259436 -0.003492 2.844540 100 71 35
0.267532 -0.003308 2.845347 100 122 56
0.278107 -0.003771 2.844688 100 99 46
0.288483 -0.002770 2.844663 100 70 25
0.295706 0.000036 2.845766 100 1 1
0.241145 0.006850 2.844239 100 0 2
0.250457 0.004438 2.844745 100 13 6
0.259157 0.004114 2.845219 100 70 33
0.269019 0.005256 2.844931 100 137 59
0.278120 0.006552 2.845034 100 152 58
0.287757 0.006476 2.844408 100 104 44
0.297392 0.007443 2.846028 100 6 4
0.303885 0.004789 2.845457 100 0 0
0.250790 0.014331 2.844908 100 88 40
0.260325 0.016400 2.845044 100 24 14
0.269458 0.014698 2.845213 100 139 67
0.278974 0.014996 2.845169 100 153 60
0.288031 0.016577 2.845001 100 138 59
0.297750 0.015832 2.844931 100 33 15
0.303992 0.019788 2.848815 100 105 23
0.249366 0.021372 2.844767 100 100 53
0.260333 0.023745 2.844914 100 8 6
0.268953 0.024310 2.845010 100 99 54
0.279802 0.025078 2.844730 100 137 60
0.288918 0.025113 2.845277 100 129 56
0.297132 0.024875 2.845307 100 50 22
0.306677 0.025594 2.844718 100 30 14
0.259156 0.033649 2.843423 100 0 0
0.270329 0.033750 2.844972 100 91 44
0.279632 0.033996 2.844983 100 113 53
0.289383 0.034834 2.845155 100 111 53
0.297968 0.034825 2.845099 100 41 23
0.306384 0.037996 2.844189 100 0 0
0.259768 0.042312 2.845232 100 2 2
0.278829 0.040803 2.847188 100 0 0
0.289929 0.042527 2.844573 100 143 76
0.299038 0.043101 2.845499 100 46 28
0.306800 0.044432 2.846983 100 3 3
0.282785 0.060653 2.843890 100 150 71
0.288865 0.064869 2.844617 100 120 62
0.287364 -0.021624 2.855631 100 4 3
0.298159 -0.025862 2.854196 100 30 18
0.308557 -0.025951 2.853287 100 93 52
0.280952 -0.012200 2.853834 100 82 43
0.286469 -0.014320 2.856237 100 76 38
0.295942 -0.015759 2.852023 100 121 61
0.243235 -0.004127 2.855530 100 0 0
0.251743 -0.004805 2.853483 100 2 2
0.259319 -0.002649 2.854920 100 43 23
0.267791 -0.002201 2.854185 100 116 55
0.278501 -0.003893 2.854593 100 93 46
0.288579 -0.004363 2.854551 100 75 29
0.297542 0.000422 2.856573 100 143 50
0.242718 0.006075 2.856488 100 0 1
0.250253 0.005715 2.854217 100 2 2
0.259456 0.004734 2.855104 100 59 28
0.269196 0.005065 2.855162 100 132 56
0.278318 0.007092 2.854611 100 144 56
0.287373 0.006480 2.855784 100 120 47
0.297554 0.006351 2.855337 100 39 15
0.313563 0.007225 2.856571 100 152 66
0.315108 0.008234 2.855059 100 150 65
0.249160 0.014030 2.855582 100 40 19
0.260206 0.015049 2.854746 100 42 19
0.269673 0.015104 2.854890 100 124 58
0.279037 0.015606 2.855100 100 153 60
0.288013 0.016631 2.854749 100 142 60
0.297150 0.015987 2.855003 100 42 19
0.308213 0.016605 2.855760 100 105 44
0.249961 0.022203 2.855518 100 100 52
0.260981 0.023898 2.854620 100 5 4
0.269167 0.024584 2.854834 100 87 50
0.279645 0.024853 2.854909 100 139 61
0.288912 0.025300 2.854842 100 136 59
0.297474 0.024901 2.854782 100 59 28
0.307583 0.026703 2.855583 100 62 28
0.263190 0.033126 2.854176 100 1 1
0.269790 0.034020 2.855363 100 52 28
0.279438 0.033976 2.855269 100 119 59
0.288980 0.035477 2.855273 100 116 54
0.297781 0.035164 2.855170 100 56 29
0.308767 0.036083 2.855916 100 18 9
0.314278 0.030834 2.856210 100 0 0
0.259551 0.047012 2.851298 100 0 1
0.265204 0.041158 2.853414 100 8 6
0.279993 0.041731 2.855686 100 58 33
0.290518 0.043275 2.854248 100 157 87
0.299020 0.043571 2.855356 100 56 35
0.306979 0.045317 2.855418 100 4 4
0.291181 0.054634 2.855740 100 153 64
0.291303 0.063088 2.855782 100 69 38
0.296580 0.067846 2.854535 100 23 13
0.292230 -0.025861 2.862401 100 1 0
0.297117 -0.027121 2.862350 100 8 4
0.268423 -0.012426 2.864064 100 143 77
0.276258 -0.012562 2.869326 100 150 86
0.288468 -0.012625 2.863461 100 105 51
0.295477 -0.016191 2.865454 100 121 58
0.305390 -0.014873 2.863031 100 123 63
0.242570 -0.005861 2.864008 100 0 0
0.250631 -0.001807 2.864212 100 3 2
0.259155 -0.002698 2.864330 100 12 8
0.268913 -0.002202 2.864158 100 95 48
0.279594 -0.002522 2.864113 100 89 43
0.288493 -0.003207 2.866493 100 60 27
0.295801 -0.000675 2.863456 100 1 3
0.250728 0.005931 2.865641 100 1 1
0.259977 0.005782 2.864837 100 33 17
0.269001 0.005088 2.864777 100 119 53
0.278191 0.006814 2.864868 100 135 56
0.288231 0.006295 2.865486 100 98 40
0.296849 0.005875 2.864825 100 15 7
0.309263 0.007921 2.865013 100 76 34
0.250001 0.013792 2.865520 100 21 11
0.259593 0.014213 2.864600 100 26 14
0.269654 0.015137 2.864951 100 105 48
0.279208 0.015868 2.864914 100 151 60
0.287890 0.016656 2.864887 100 147 61
0.298444 0.016376 2.865251 100 32 15
0.308390 0.014424 2.866080 100 90 41
0.249715 0.023516 2.864794 100 89 46
0.261487 0.025367 2.864239 100 14 7
0.268874 0.024146 2.865427 100 69 40
0.279617 0.024742 2.865054 100 143 63
0.289200 0.024866 2.865096 100 142 61
0.297338 0.024937 2.864903 100 71 33
0.307955 0.027485 2.864246 100 50 24
0.259413 0.033880 2.865702 100 1 3
0.269727 0.034118 2.864923 100 33 19
0.279968 0.034916 2.864962 100 102 51
0.289089 0.035098 2.865482 100 125 58
0.298061 0.035422 2.865077 100 58 29
0.306868 0.036953 2.864881 100 4 3
0.263494 0.047282 2.862084 100 1 2
0.269354 0.042777 2.864099 100 25 14
0.281126 0.041897 2.865081 100 105 56
0.289785 0.042816 2.864288 100 150 76
0.298724 0.043169 2.865146 100 71 41
0.306369 0.043967 2.865701 100 2 2
0.290740 0.054610 2.862926 100 96 46
0.296099 0.054712 2.866671 100 126 64
0.292649 0.060794 2.865799 100 14 6
0.297202 0.065467 2.864582 100 7 4
0.280754 -0.012043 2.873503 100 151 87
0.288486 -0.010790 2.877702 100 107 61
0.299504 -0.011128 2.874658 100 99 52
0.304886 -0.014609 2.871470 100 125 64
0.321276 -0.014768 2.876069 100 36 17
0.251151 -0.000716 2.874630 100 3 1
0.260096 -0.002292 2.873799 100 14 8
0.269465 -0.002844 2.873252 100 70 33
0.279381 -0.003901 2.875356 100 102 53
0.288694 -0.003550 2.875025 100 67 32
0.294956 -0.005641 2.875262 100 135 69
0.251351 0.006629 2.876086 100 0 1
0.260541 0.005942 2.874579 100 13 8
0.269044 0.005640 2.874555 100 103 48
0.277499 0.006629 2.874753 100 123 56
0.286978 0.005479 2.875084 100 96 42
0.298006 0.005151 2.874057 100 5 3
0.249545 0.015997 2.873583 100 1 2
0.259277 0.013856 2.875226 100 15 8
0.269343 0.014210 2.875239 100 97 43
0.279223 0.015664 2.874733 100 150 59
0.287868 0.016889 2.874676 100 143 61
0.298253 0.016961 2.874953 100 46 22
0.305711 0.016749 2.875563 100 23 12
0.250287 0.024698 2.874612 100 67 37
0.260361 0.024279 2.874951 100 69 31
0.269358 0.025278 2.875048 100 48 28
0.279651 0.024886 2.874996 100 149 66
0.288878 0.025481 2.875054 100 147 62
0.298125 0.025361 2.875014 100 68 32
0.307759 0.028110 2.875279 100 53 26
0.259442 0.034657 2.876038 100 20 13
0.270174 0.035170 2.874805 100 9 6
0.279837 0.035453 2.875004 100 96 49
0.289499 0.035310 2.874854 100 122 58
0.298112 0.034877 2.875231 100 62 29
0.307092 0.035244 2.875515 100 1 1
0.314531 0.033490 2.872008 100 126 59
0.268724 0.046237 2.872515 100 6 4
0.279140 0.042424 2.875534 100 72 42
0.289767 0.042331 2.875001 100 140 68
0.298354 0.042704 2.875559 100 85 47
0.305662 0.043655 2.874568 100 6 4
0.291766 0.057543 2.870905 100 6 4
0.295911 0.056314 2.873630 100 43 26
0.310723 0.052654 2.879987 100 0 0
0.296253 -0.011809 2.884320 100 157 93
0.304540 -0.010769 2.882131 100 97 54
0.251080 -0.000434 2.880411 100 2 1
0.260911 -0.002012 2.883778 100 4 3
0.267130 -0.003976 2.883126 100 0 2
0.278863 -0.003456 2.884908 100 70 38
0.288438 -0.004494 2.883973 100 70 37
0.297341 -0.004266 2.884315 100 139 76
0.252747 0.004493 2.884704 100 1 1
0.261527 0.006435 2.883551 100 11 5
0.269131 0.006615 2.884626 100 87 43
0.277615 0.007065 2.884682 100 106 47
0.287529 0.005153 2.885047 100 92 45
0.298979 0.007436 2.886627 100 44 17
0.251118 0.017971 2.883853 100 0 2
0.260397 0.013961 2.885157 100 12 7
0.269501 0.014403 2.885357 100 86 39
0.279210 0.015793 2.884851 100 146 57
0.287959 0.016930 2.884784 100 147 65
0.298364 0.017960 2.885010 100 53 24
0.305877 0.017158 2.884210 100 1 2
0.250797 0.020983 2.883914 100 0 0
0.257282 0.024809 2.885877 100 79 37
0.270274 0.026008 2.884746 100 37 19
0.279358 0.025038 2.885052 100 139 63
0.288847 0.025198 2.884995 100 149 61
0.298152 0.025721 2.885031 100 80 39
0.306372 0.027339 2.885217 100 53 25
0.260037 0.035600 2.885293 100 33 20
0.269638 0.034002 2.885243 100 3 3
0.279923 0.035449 2.884522 100 87 44
0.288858 0.034617 2.885016 100 126 58
0.298095 0.035024 2.885185 100 81 38
0.306655 0.034940 2.885183 100 13 6
0.317618 0.032843 2.886891 100 63 30
0.271595 0.047773 2.886144 100 1 1
0.278790 0.042563 2.885373 100 57 33
0.289842 0.042815 2.884914 100 143 74
0.298291 0.043251 2.885212 100 90 49
0.306588 0.043991 2.885024 100 4 3
0.314569 0.046855 2.884974 100 1 1
0.303633 0.052398 2.889567 100 11 8
0.306853 0.051629 2.885990 100 3 2
0.300152 -0.012908 2.895556 100 148 88
0.261783 -0.000470 2.893220 100 3 2
0.271331 -0.004271 2.893704 100 27 16
0.281203 -0.004971 2.894910 100 130 75
0.289304 -0.003902 2.892785 100 41 23
0.298629 -0.003277 2.895981 100 124 67
0.253077 0.002481 2.893501 100 2 0
0.261275 0.005602 2.894674 100 0 0
0.269569 0.007349 2.894261 100 55 29
0.277591 0.007911 2.894279 100 104 47
0.288437 0.006145 2.895472 100 54 28
0.297576 0.006403 2.896066 100 78 39
0.249274 0.019283 2.894989 100 66 29
0.260635 0.015771 2.894617 100 11 6
0.269164 0.015086 2.895042 100 63 31
0.279399 0.015499 2.894822 100 141 58
0.287365 0.016787 2.894975 100 145 64
0.298131 0.017283 2.895293 100 74 34
0.306392 0.016879 2.894964 100 0 2
0.315994 0.017726 2.894852 100 117 29
0.251338 0.022964 2.896136 100 0 1
0.259281 0.023715 2.896013 100 38 19
0.270786 0.026043 2.894886 100 32 15
0.280014 0.025429 2.894718 100 129 57
0.288606 0.024912 2.895041 100 151 61
0.298379 0.026007 2.895118 100 88 42
0.305844 0.027610 2.895297 100 56 26
0.260204 0.036028 2.895213 100 64 39
0.271106 0.034511 2.895325 100 3 2
0.279055 0.033997 2.895517 100 82 45
0.288970 0.034955 2.895000 100 129 59
0.298521 0.034953 2.895029 100 90 43
0.307016 0.035437 2.895873 100 9 6
0.318207 0.032226 2.895309 100 64 29
0.272482 0.044157 2.896916 100 1 1
0.279789 0.043070 2.894567 100 39 21
0.289542 0.043454 2.895636 100 129 68
0.298558 0.043675 2.894854 100 93 50
0.307373 0.044243 2.895903 100 4 3
0.303402 0.052436 2.894759 100 14 10
0.307602 0.052220 2.895659 100 0 1
0.293473 -0.012673 2.905766 100 1 2
0.295671 -0.013708 2.902778 100 105 69
0.271555 -0.004374 2.904921 100 4 3
0.279436 -0.003961 2.905293 100 79 47
0.289520 -0.003387 2.904349 100 63 35
0.299615 -0.005435 2.905202 100 103 57
0.304787 -0.001417 2.903095 100 134 70
0.257174 0.007360 2.902480 100 0 0
0.269275 0.007095 2.903541 100 22 13
0.277735 0.008979 2.904696 100 101 48
0.287607 0.006726 2.904136 100 35 20
0.297169 0.005640 2.905430 100 83 42
0.305522 0.008958 2.905086 100 148 64
0.247593 0.018992 2.903819 100 132 55
0.261018 0.016175 2.905068 100 30 14
0.269728 0.015479 2.904781 100 45 23
0.278952 0.015182 2.905092 100 125 54
0.287911 0.016532 2.904898 100 139 62
0.298564 0.016565 2.904510 100 79 36
0.305817 0.018227 2.904632 100 1 2
0.250576 0.024671 2.904218 100 31 14
0.258973 0.025069 2.905123 100 27 13
0.269873 0.023555 2.905484 100 40 20
0.279992 0.024964 2.904761 100 116 49
0.289082 0.025476 2.905029 100 151 61
0.297964 0.026039 2.905073 100 106 50
0.305605 0.026525 2.906024 100 40 20
0.315634 0.022876 2.902106 100 116 31
0.259474 0.035992 2.905444 100 77 43
0.271821 0.034475 2.904598 100 1 2
0.279413 0.034433 2.905163 100 58 32
0.288985 0.034962 2.905204 100 133 59
0.298533 0.034831 2.904992 100 102 49
0.306444 0.035470 2.905473 100 23 13
0.319416 0.032745 2.904408 100 43 20
0.258530 0.041058 2.905837 100 1 1
0.271116 0.045863 2.905766 100 0 1
0.280580 0.044488 2.905023 100 30 15
0.289475 0.044098 2.905210 100 115 61
0.298315 0.044166 2.904944 100 91 49
0.307084 0.045252 2.905034 100 8 6
0.276742 0.050803 2.905899 100 2 1
0.284380 0.053266 2.901668 100 0 1
0.303095 0.051670 2.903531 100 22 14
0.307293 0.053116 2.905825 100 0 1
0.273162 -0.001892 2.914684 100 11 6
0.276483 -0.002994 2.911976 100 32 18
0.289052 -0.002656 2.915910 100 113 63
0.297783 -0.002824 2.915945 100 68 36
0.305205 -0.005572 2.916287 100 146 80
0.258018 0.009246 2.918627 100 0 1
0.270079 0.007477 2.914534 100 15 8
0.278574 0.007600 2.913537 100 65 33
0.289026 0.007581 2.914202 100 56 30
0.298257 0.006546 2.914727 100 72 39
0.260455 0.015205 2.912717 100 51 23
0.270364 0.016351 2.914154 100 28 15
0.278882 0.015391 2.914872 100 102 48
0.288205 0.016670 2.914886 100 126 57
0.298427 0.016992 2.914659 100 81 37
0.306869 0.018973 2.916230 100 0 1
0.259566 0.026176 2.914040 100 5 3
0.270173 0.023675 2.915562 100 28 14
0.280177 0.024465 2.914979 100 112 47
0.289257 0.025908 2.915020 100 147 59
0.297823 0.026613 2.915011 100 112 53
0.306102 0.025248 2.915296 100 42 20
0.318009 0.024961 2.914541 100 115 34
0.259026 0.034222 2.915178 100 90 45
0.271899 0.034971 2.913348 100 0 1
0.280176 0.034855 2.914714 100 47 24
0.289136 0.035043 2.915166 100 133 61
0.298476 0.035231 2.914966 100 108 52
0.306206 0.035134 2.915169 100 35 18
0.316626 0.036367 2.913712 100 20 10
0.329258 0.032240 2.916165 100 0 1
0.259804 0.042220 2.914391 100 2 1
0.272915 0.042809 2.910739 100 1 3
0.281314 0.044170 2.915353 100 26 11
0.289187 0.044404 2.915531 100 96 52
0.298883 0.044037 2.915137 100 93 49
0.307442 0.044683 2.915055 100 5 4
0.279236 0.052602 2.914083 100 2 3
0.286971 0.053280 2.916538 100 0 1
0.299675 0.051161 2.915123 100 77 44
0.308116 0.052230 2.916672 100 2 2
0.282675 -0.002067 2.925563 100 66 41
0.290308 -0.002685 2.924126 100 110 63
0.298946 -0.001157 2.925342 100 68 36
0.307569 -0.004490 2.926460 100 144 78
0.269592 0.007113 2.922534 100 5 2
0.278903 0.007111 2.925540 100 47 28
0.289241 0.007546 2.923806 100 34 18
0.298877 0.007671 2.925162 100 48 28
0.304896 0.003132 2.924980 100 135 76
0.261404 0.013930 2.924095 100 1 1
0.270965 0.016156 2.923995 100 4 2
0.279146 0.016307 2.924693 100 70 35
0.288019 0.016812 2.925080 100 121 55
0.297383 0.016561 2.924802 100 79 37
0.307236 0.018277 2.922913 100 0 0
0.261973 0.026439 2.924152 100 7 4
0.270525 0.024601 2.925323 100 12 7
0.279827 0.024343 2.924925 100 91 39
0.289149 0.025977 2.924963 100 143 59
0.298027 0.026202 2.925130 100 106 51
0.306738 0.026398 2.925111 100 35 16
0.316870 0.025002 2.923953 100 119 36
0.260387 0.034039 2.924997 100 74 38
0.267747 0.031822 2.926631 100 19 10
0.280899 0.036139 2.924427 100 42 18
0.289090 0.034976 2.924997 100 127 57
0.298262 0.035108 2.925061 100 118 56
0.306804 0.035695 2.924679 100 48 24
0.318566 0.036840 2.926543 100 82 38
0.328732 0.032480 2.926487 100 0 1
0.259751 0.042663 2.925946 100 5 3
0.273546 0.041116 2.925206 100 3 2
0.280280 0.044329 2.924724 100 15 7
0.288492 0.044330 2.925168 100 71 39
0.299024 0.043947 2.925240 100 91 47
0.307127 0.044213 2.925097 100 6 4
0.280819 0.053354 2.924371 100 2 2
0.289397 0.051499 2.926071 100 67 38
0.299532 0.051454 2.925383 100 109 63
0.307966 0.051921 2.923791 100 6 5
0.314485 0.058676 2.924199 100 1 1
0.280979 -0.001530 2.935089 100 15 10
0.288356 -0.001729 2.935227 100 99 62
0.294981 -0.000177 2.938014 100 150 79
0.309403 -0.002559 2.931675 100 140 74
0.272351 0.007188 2.934390 100 1 2
0.277071 0.007506 2.932243 100 11 7
0.292959 0.007543 2.934418 100 14 8
0.298205 0.008113 2.934180 100 44 26
0.306898 0.002867 2.934243 100 136 75
0.259792 0.016819 2.932543 100 131 60
0.270661 0.018512 2.933018 100 0 1
0.279731 0.017164 2.934739 100 37 20
0.287098 0.017525 2.934749 100 94 45
0.297686 0.016047 2.934411 100 60 31
0.307658 0.017263 2.935648 100 0 1
0.261546 0.021818 2.933316 100 140 67
0.270762 0.026215 2.934574 100 24 12
0.279806 0.024168 2.934811 100 65 31
0.289148 0.026102 2.935059 100 135 56
0.298024 0.025987 2.935024 100 109 53
0.306725 0.026217 2.934819 100 16 8
0.317647 0.026111 2.937301 100 128 43
0.338234 0.029736 2.939718 100 0 0
0.260654 0.035196 2.935400 100 99 46
0.268968 0.032423 2.936181 100 6 5
0.280826 0.035360 2.935003 100 31 15
0.289490 0.035126 2.934898 100 116 51
0.298465 0.034959 2.935107 100 121 58
0.307127 0.035745 2.934815 100 58 27
0.317033 0.032615 2.934049 100 17 11
0.332195 0.031501 2.934001 100 0 0
0.334076 0.030974 2.938644 100 0 0
0.261346 0.044098 2.936122 100 27 16
0.272661 0.048774 2.936133 100 2 1
0.280832 0.043511 2.934845 100 7 5
0.288944 0.044250 2.934388 100 64 36
0.298752 0.044227 2.935149 100 99 50
0.307272 0.044857 2.934894 100 9 6
0.315717 0.043239 2.931103 100 0 3
0.281681 0.053961 2.934679 100 0 0
0.288808 0.051882 2.935256 100 37 22
0.299630 0.051944 2.934999 100 123 71
0.306983 0.052759 2.934838 100 21 13
0.313842 0.058033 2.930377 100 1 1
0.286843 -0.000498 2.944694 100 63 39
0.298127 -0.002508 2.947363 100 143 76
0.273206 0.008766 2.940835 100 0 3
0.279561 0.010159 2.943413 100 1 1
0.293238 0.006616 2.942715 100 35 18
0.297739 0.009248 2.942747 100 63 38
0.306120 0.005036 2.945453 100 132 73
0.257359 0.018310 2.943520 100 132 61
0.273266 0.020015 2.940156 100 0 1
0.280468 0.017593 2.944331 100 18 10
0.287391 0.018068 2.944336 100 63 33
0.298233 0.016217 2.944449 100 37 20
0.306539 0.016110 2.942794 100 9 5
0.259713 0.024982 2.945839 100 139 68
